# .PCD v0.7 - Point Cloud Data file format
VERSION 0.7
FIELDS x y z rgb
SIZE 4 4 4 4
TYPE F F F F
COUNT 1 1 1 1
WIDTH 894
HEIGHT 1
VIEWPOINT 0 0 0 1 0 0 0
POINTS 894
DATA ascii
-0.3456435906 -0.5251279809 4.946245666 2.493235069e-39
-1.127104197 1.262407411 2.739819869 1.069649934e-38
1.42535599 0.2885046085 4.428570443 9.499752614e-39
-1.174468594 1.322124857 2.346199867 4.611590569e-39
-1.101594907 1.034515942 2.847765233 1.134294775e-38
2.103519234 0.1259661778 3.094852707 1.2910642e-38
1.634260857 1.011424664 1.987900862 1.85475024e-39
0.187182773 -0.6586397745 4.740216883 1.457051366e-38
2.127119841 -0.03597987242 3.184059327 1.364964337e-38
0.8246337703 0.5541189175 3.056271702 7.655855431e-39
0.6255516845 0.4320335264 3.070585704 1.200720806e-39
-1.276406064 0.6449302016 1.498056452 1.152770194e-38
-1.279838294 1.054138847 1.602350605 1.060502678e-38
-1.12867119 0.699056655 2.223939207 1.171137434e-38
0.6948799554 0.5541922524 3.055149288 8.116477651e-39
-1.020299366 0.4013417703 3.2502842 1.051210668e-38
2.051144364 -0.04345592174 2.567915641 1.337233341e-38
-1.278034855 0.4904296418 1.440681356 1.106528046e-38
-1.275837131 0.167031734 1.428378573 1.291027345e-38
1.328295114 -0.8482253494 4.616268342 1.521589428e-38
-0.6725355871 0.03066142182 3.168292482 6.179639347e-39
0.2026334156 1.338124463 2.774336472 8.384724012e-39
-1.002457778 0.005714378182 3.219439458 5.532825199e-39
-1.239969304 0.5412249694 1.762094294 1.014332556e-38
-1.171263967 0.284257402 2.298140272 1.291063639e-38
-1.156102884 0.2952266241 2.235421587 1.281844076e-38
-0.1102894993 0.4224652345 4.991158818 6.18071134e-39
1.330497435 0.6449533829 4.108713158 1.752804375e-39
2.040796045 0.1023754008 2.474516155 1.383222975e-38
-1.207143472 0.4353919438 1.918582573 1.106853007e-38
-0.2141266686 0.6713749005 3.039190549 8.025725358e-39
0.9926526095 0.6727441639 3.176747482 1.845718871e-39
0.8058158104 1.441797561 2.619756084 4.24353112e-39
-0.9705026579 0.6554672245 3.526633833 1.097416383e-38
0.7270576858 1.150012864 2.983404182 9.681998486e-39
1.612264479 1.177538851 2.785223453 1.014440456e-38
-0.3977461023 0.3067192146 3.073150565 8.67073043e-39
2.114410165 -0.4910717054 3.194030068 1.134186735e-38
-1.238128308 0.5514078653 1.654025693 1.014296122e-38
0.8960345818 1.442429711 2.592201977 4.519041812e-39
2.020981661 -0.01914854029 2.468610106 1.337233341e-38
-1.026132778 0.9318493074 3.397150629 9.036613663e-39
0.2217437182 -0.5101964365 4.907091573 2.400320573e-39
-1.015266956 1.409581315 2.964585067 1.013826547e-38
1.617359192 1.016131713 2.098580452 2.402517809e-39
2.062691273 0.06490077343 2.669599276 1.309502765e-38
1.587628455 0.8164216992 1.747164991 2.040586238e-39
-0.6829339872 0.6642564653 3.249669499 5.625375358e-39
1.997892203 0.6066039524 2.18701974 2.504086725e-39
-0.3865845513 0.7900170795 3.008505842 7.564747209e-39
1.821035125 -0.4911442681 4.62361418 1.75567003e-39
-0.5832241696 -0.7836444188 4.480069619 1.281699742e-38
0.08028594363 0.5538177003 3.043522021 8.118644058e-39
2.082531738 -0.2417833128 2.82945133 1.401842589e-38
-1.190819486 1.209480274 2.284664769 1.023624426e-38
-1.180242175 0.01424943421 2.095346765 1.309647239e-38
-1.117030626 1.276082403 2.850051209 1.124931158e-38
0.07762503438 0.4336707474 3.057420822 8.486703508e-39
2.143598104 -0.24405757 3.445436704 1.484818655e-38
1.565675104 0.9314497476 2.771372449 1.051283115e-38
-0.6155520817 1.422742912 2.552115166 2.76767517e-39
-1.184521716 1.099230892 2.215916069 1.042063552e-38
-0.8674446649 0.2853433417 4.42752947 6.17709599e-39
-1.23945503 0.002307777307 1.743138854 1.346452904e-38
-0.04406689887 0.7895638813 3.028230302 7.749138469e-39
2.089269408 -0.00031103269 3.009586185 1.36489231e-38
0.6733945035 1.267541645 2.98210168 7.745886055e-39
1.565415829 1.082695021 1.73142725 2.407200949e-39
-0.1069000667 -0.6851153097 4.827263569 1.420101227e-38
-1.091067905 1.04546192 3.021532345 1.097344076e-38
1.488051203 1.417341888 2.814467084 1.161736543e-38
1.59108315 0.4528684089 2.743299669 4.887461396e-39
1.582234299 1.090984825 1.816021552 2.131693059e-39
-1.24604408 0.2994231478 1.625335006 1.355636173e-38
-1.120551443 1.38722288 2.781439913 5.162603546e-39
0.09679385592 0.9069129438 3.018758819 7.473630579e-39
-0.3496461156 1.419319975 2.59740324 3.782555773e-39
1.631047601 0.8164074724 1.972430752 1.949106672e-39
1.617786678 0.915623218 2.101249812 2.310685116e-39
1.068209728 1.51651355 3.602462015 7.928461232e-39
-0.9895180823 0.5132618716 3.555728578 1.005076839e-38
1.483729132 0.9283849818 2.778350582 1.078941804e-38
0.7900894379 -0.843615012 4.681878651 1.05124598e-38
0.4625472559 -0.3029665084 4.832025603 3.414838241e-39
-1.166188704 0.7104885598 1.893430828 1.134331068e-38
1.912535255 0.7221294143 2.010842693 2.135304205e-39
-1.246241424 1.158753501 1.816525152 1.023696312e-38
-1.218343199 0.7257188348 1.46555538 1.115820056e-38
-0.2317199389 1.066781331 3.595130731 6.086720647e-39
-1.195806685 0.3233378352 2.044681676 1.281879669e-38
0.009715361703 1.340495486 2.792177596 9.954244153e-39
2.029225184 -0.284419812 2.500916932 1.374255506e-38
-0.2307101406 0.4279885361 4.90115459 6.181800149e-39
0.4779036114 0.4261271229 4.963574621 2.768412253e-39
-1.188189066 0.2219900998 2.066549773 1.300283202e-38
-1.0524409 -0.216222919 3.009629142 1.161953464e-38
0.4914071762 1.432759485 2.655263309 4.612316442e-39
1.529016066 0.5658242222 2.857386881 8.304977518e-40
1.618961385 1.128588402 3.936169461 8.758217697e-39
-1.118857622 0.4582501522 2.655733987 1.281844076e-38
2.213450717 -0.4997382988 3.78945399 1.530953184e-38
1.455112975 1.057910864 2.963016568 1.005111872e-38
-1.046106677 0.6805769483 2.768105564 9.590150378e-39
1.867037542 -0.864939868 4.540444628 1.254076646e-38
1.79538778 1.31665726 2.776571731 8.207217332e-39
-0.9519767679 0.7951175036 3.554410601 7.838067672e-39
1.1709478 -0.6612915706 4.669686979 1.475526505e-38
0.2421401392 0.9072233636 3.006531398 7.381079019e-39
-1.210634095 0.5250504384 1.942403532 6.733166254e-39
2.02211201 0.5907511411 2.433082763 1.079303339e-38
-0.6580099487 -0.390896866 3.232772411 7.194873078e-39
-0.8552347933 1.373890224 3.677423445 9.956040618e-39
1.641715796 1.211995855 2.010039403 2.581840572e-39
1.81432578 -0.3030121106 4.646663453 8.762903639e-39
0.8176977088 0.4322356337 3.057009203 8.024282021e-39
1.463557689 0.8084591525 3.089835843 9.680892862e-39
-0.864968075 -0.05255346108 4.382742959 6.179639347e-39
0.9107242549 0.5477302383 3.151545793 1.568770446e-39
1.460888738 1.468776946 2.444060435 1.152191878e-38
1.852414059 -0.5088940347 4.690932459 1.110297819e-39
-0.2610675151 0.429791002 3.074633288 8.394154751e-39
1.561464178 1.255983297 1.676215222 9.950963713e-39
0.1410162289 1.257010144 2.988814961 7.471832713e-39
-0.2596004027 0.6302118234 4.317176429 8.394507878e-39
-1.267836864 0.4129092425 1.429049873 1.143587205e-38
-1.087499554 0.3210830404 2.83860595 1.272552626e-38
2.141273706 -0.5084105262 3.24242761 1.032806854e-38
0.260825703 0.5555588439 3.025585429 8.39342047e-39
-1.156970231 -0.0285780174 2.270306868 1.346453184e-38
0.7374387392 -0.8420865728 4.68232436 1.014475909e-38
0.3313469111 1.257348607 2.975643319 7.379268542e-39
1.636949337 0.8133253893 2.760272806 1.042135438e-38
1.053748056 1.078601838 3.522723045 2.398176587e-39
0.2631396788 0.3106537003 3.08092175 8.578183074e-39
1.054035146 1.447033704 2.55188035 4.887824332e-39
0.2455033375 1.435014392 2.697624429 4.520120812e-39
0.5920760924 -0.5059708969 4.877819621 4.649312123e-40
2.059896795 0.442136139 2.74640075 1.263260756e-38
1.61033712 1.110181472 2.020492749 2.036256226e-39
1.616611773 1.115112069 2.07312799 9.273849289e-40
1.021508376 -0.505975416 4.837711471 1.295054817e-39
0.1807250733 1.435089994 2.70216287 4.795628702e-39
-1.161231755 -0.02070288442 2.238373848 1.328086085e-38
0.7501031982 1.268937731 2.970699804 7.470378165e-39
0.562604677 0.3102939234 3.073312679 8.302310847e-39
1.419389089 0.8077472807 2.800950723 1.115747609e-38
0.6572286439 0.9122672112 3.00162589 7.380355949e-39
-1.117381235 -0.09147765948 2.524158722 1.337198028e-38
-0.559434701 -0.03593191027 4.329095652 1.244893938e-38
-0.352390069 1.403645484 3.115740102 8.020656862e-39
1.591480638 1.177172574 2.797524599 1.023659879e-38
-1.130901663 0.9057623396 2.511387578 1.115820056e-38
1.623598889 -0.3157976582 4.752626856 2.401407981e-39
0.7502651334 1.034102552 3.016363907 2.861326749e-39
1.986353157 -0.104960337 4.560417827 1.383294442e-38
0.7905670701 0.7959324765 3.019863793 7.379991612e-39
2.054194319 0.574412983 2.684751994 1.116108303e-38
-1.239695396 0.5493704687 1.675296365 9.498310678e-39
-0.8310171577 -0.05208609274 4.385477623 6.27183778e-39
0.6202786887 0.5548171896 3.045230068 8.025361021e-39
0.3326492237 0.312180507 3.068918526 8.578183074e-39
-1.110120995 0.697418889 2.270222281 1.143550631e-38
0.07898322142 -0.4676932803 4.733668704 1.374256066e-38
0.7138504201 -0.1028246016 4.746002561 1.485034455e-38
1.964321584 -0.3606687259 4.023206152 1.503293094e-38
-0.4787685347 1.42085046 2.578681055 2.952795105e-39
-1.184206808 0.896743719 2.14275819 1.088161367e-38
-0.5548752775 0.910161738 3.018109699 7.470753713e-39
2.052996403 -0.2146406319 2.734232505 1.383403463e-38
-1.127949102 0.02760224765 2.506366131 1.337161454e-38
1.701393379 0.4455777291 4.673296772 8.854383205e-39
-1.065977139 1.604659749 3.284817847 1.14322581e-38
-1.209511606 0.3343335552 1.969609433 1.300283202e-38
-1.058539804 0.6794902243 2.801873112 8.483804221e-39
1.58255102 0.9319392182 2.764410782 1.042063552e-38
-1.052633683 0.9268621679 3.231883818 1.041991245e-38
-0.04195071266 -0.673541316 4.789016268 1.410953551e-38
2.049191229 0.0798747653 2.594089012 1.309502765e-38
-1.216212925 0.5219145108 1.973579861 5.535702065e-39
-1.273572199 0.5624310016 1.522259653 1.051355001e-38
-1.092994038 0.5626665525 2.795871935 1.069938741e-38
-1.149804754 -0.03761643926 2.307726908 1.346453184e-38
0.2959477211 0.3097580649 3.087120521 8.393791814e-39
-0.4222289381 0.5505934164 3.056107799 8.210115217e-39
2.15650641 -0.3933746194 3.39819761 1.512512937e-38
0.7121945053 0.9131569229 2.997973861 7.288160319e-39
-1.11447561 1.033471306 2.823645947 1.125075212e-38
-1.249606421 0.04808997677 1.571633352 1.328013778e-38
1.719447516 1.18425071 2.770857052 9.497954748e-39
-0.638432734 1.422116394 2.542293567 3.412325713e-39
2.077468812 0.4403829344 2.760402756 1.244929531e-38
1.410510587 0.6834382784 2.963266654 7.744784634e-39
1.291876246 0.8053433412 4.177148476 1.568044574e-39
1.555209464 0.4542532733 2.736172963 3.964423295e-39
-1.099123885 0.6971312719 2.277479339 1.161989757e-38
-1.128399678 0.3528320642 2.586124581 1.272624513e-38
-0.9797968954 0.009181640415 3.207908904 5.625739695e-39
-1.237980696 0.7303387126 1.339981423 1.088233253e-38
-1.105917186 -0.2333864227 2.607215769 1.355745054e-38
1.413439288 0.6787199209 3.105913949 1.078760756e-38
1.545585797 1.425015433 2.827140694 1.189395232e-38
-1.222173337 0.9822712102 1.894619379 1.06982972e-38
-1.252200831 0.2133555783 1.617918418 1.300318795e-38
-1.263221581 1.246009506 1.776453744 4.427196507e-39
1.287314407 0.9684158108 4.182785372 2.120502289e-39
-1.179932018 0.5099920115 2.108761283 1.134475682e-38
-1.157616561 -0.1354997043 2.260000764 1.346525491e-38
-0.4582780932 1.424917297 2.602580349 2.122677105e-39
1.736122092 1.060889859 2.755822118 8.854020269e-39
-0.03453472613 0.6721058619 3.028884906 8.026079887e-39
0.5613469353 1.263452864 2.979878923 7.746616132e-39
1.638198141 0.8153755802 2.207280944 3.601423934e-39
0.6654524428 0.4277249047 4.944784625 3.229393205e-39
-0.04129537736 0.4329999473 3.058654806 8.48670631e-39
-1.21397534 1.374400531 2.022869857 4.334282011e-39
-0.9786015412 0.2239541498 3.590860188 7.28308902e-39
2.039027915 -0.05284536945 2.617774554 1.346452904e-38
1.933476506 0.717447558 2.150441934 2.226780969e-39
-0.5882701692 -0.5454939383 3.732023645 1.466379529e-38
-1.254766404 0.1518000078 1.505381176 1.300318795e-38
1.568110163 1.405942532 3.634759921 8.480553209e-39
1.551719504 1.285511632 3.94606664 1.005003972e-38
-1.092964374 -0.1333865402 2.689733647 1.337305648e-38
-1.247274704 1.151607477 1.75248286 1.023624426e-38
0.9411958098 0.9316171429 3.377016915 1.938285845e-39
1.38503532 1.301671592 4.190164372 4.610868901e-39
1.665524037 0.8156148318 2.335414548 3.508865368e-39
-0.2985665671 0.4304814828 3.0644979 8.486703508e-39
2.047014668 0.4507871588 2.657664123 1.235709827e-38
2.171546976 -0.5509983503 4.002877832 1.475634685e-38
-1.283692937 0.2595630877 1.3772942 1.346344723e-38
1.105850456 1.130254519 4.241902027 7.379991612e-39
-1.317786321 1.196477881 1.354295812 4.05841679e-39
-1.037227791 -0.3828691263 3.118232039 9.591229378e-39
-1.221262949 0.8908747469 1.868963194 1.078941804e-38
0.6148664593 0.7937172173 3.027251501 7.656942839e-39
1.660973672 -0.2972774908 4.65328479 7.840950143e-39
-1.279746488 0.2629593421 1.36301611 1.355564286e-38
0.1726420529 0.7901703114 3.022251509 7.841334099e-39
0.003940530543 0.9060591797 3.001516826 7.656578501e-39
-1.018474238 0.389676926 3.367341262 9.773099702e-39
2.088039205 -0.2421589761 2.828314424 1.401842589e-38
0.1024148287 0.3120958599 3.069066869 8.578899138e-39
-1.159140438 0.7070331229 1.993241631 1.134331068e-38
0.05810225735 0.3103210612 3.080735067 8.671094767e-39
1.650073827 1.143168732 2.368879148 4.060597211e-39
-1.28454504 1.219334282 1.564922219 4.24280805e-39
-1.030090236 0.5279263034 3.329723713 1.032879582e-38
-1.155107069 1.125817946 2.522074564 1.051318708e-38
0.6337472135 0.9120697067 3.00753067 7.380355949e-39
0.8055800656 0.6762973746 3.02536323 7.748776934e-39
1.556799292 1.253491514 1.662559892 9.860940096e-39
0.3544767701 1.257938407 2.976869608 7.471108242e-39
1.550409989 1.125355082 3.932731716 9.03588779e-39
1.597563735 -0.4896319661 4.670442196 8.670345073e-39
-1.252942626 1.246383809 1.787780913 4.242443712e-39
0.03696770267 1.339850576 2.78885972 7.831574055e-39
1.58588278 1.18488845 1.820801807 4.05697065e-39
2.049012923 0.4568759454 2.592039771 1.272588079e-38
-1.133058833 0.2610251343 2.45435719 1.300211315e-38
-1.285013781 0.5803135154 1.321381566 6.731722916e-39
1.514894518 0.4510564334 2.776783802 1.289671029e-39
-1.221612108 0.1727561633 1.822398487 1.318650441e-38
-1.014989448 1.216191003 3.508094329 1.005041106e-38
0.2444808026 0.6730176993 3.030147862 7.842413098e-39
-0.02036309098 0.3101456536 3.078944036 8.57890194e-39
-0.9626044571 1.407155468 2.971654319 1.170775478e-38
1.807519496 0.2636230481 4.630903752 7.840231277e-39
-0.3279762172 1.025154743 3.005476217 7.471111044e-39
2.0309617 -0.1386160374 2.434872667 1.337341241e-38
1.193063173 1.296179928 4.218392519 2.582934987e-39
-0.3082206704 1.420842814 2.611328521 3.321220293e-39
0.26857596 0.6727697502 3.041009287 7.934608728e-39
-1.274963283 0.2310776549 1.520917384 1.300246908e-38
-0.8943854077 -0.2527750851 3.185269502 5.718658395e-39
0.7780170001 1.152602966 2.991493609 2.215594403e-39
1.952579761 0.7145177222 2.240467026 2.042389709e-39
1.983077081 0.5042948093 2.098141657 9.777796854e-39
-1.085459645 0.796471324 2.995751473 1.023515685e-38
-0.6626973445 -0.3834878143 3.208436489 7.194873078e-39
-1.26686941 1.308049515 1.601232952 4.15061242e-39
-0.5202749916 0.6713855078 3.029452325 7.749138469e-39
-1.247246806 0.01261890111 1.701895966 1.337233341e-38
-0.9484730329 1.40976449 2.992697922 1.143044903e-38
1.744161059 0.6954833751 2.712586086 1.060430371e-38
-1.257059139 0.1621164815 1.460666704 1.300283202e-38
1.674076127 1.038751224 2.438787027 3.601058195e-39
1.552843702 1.307518752 4.165747885 3.781108232e-39
-1.294446304 0.6503552157 1.40852567 1.088233253e-38
-1.28265472 0.3311548321 1.428199198 1.097524703e-38
0.9299544181 -0.849272168 4.683518429 1.032806854e-38
-1.259356775 0.562192592 1.530156582 1.051318708e-38
0.6748651764 0.3104227133 3.064239645 8.48526017e-39
-1.291173744 0.5761255135 1.365280983 8.668566825e-39
-1.286542179 0.3402506312 1.373986388 1.134475542e-38
-1.289114409 0.6514544216 1.392346222 1.088233253e-38
1.59120226 1.175941692 2.784422812 1.032879442e-38
-0.9890824385 0.2417571561 3.456294744 7.100134092e-39
-1.017753015 0.6695662038 3.099352158 9.960376235e-39
1.636296244 0.3317634826 2.731841704 9.492146366e-39
0.7483041298 0.3094034961 3.065146912 8.117556651e-39
1.655383422 0.815386714 2.318177782 3.601779864e-39
-1.150742665 0.7978772168 2.529478118 1.143550631e-38
0.2574861254 0.9070466191 2.998817239 7.564747209e-39
0.1216616196 0.6725751268 3.029320195 7.842057169e-39
2.073223043 -0.1111843153 2.872066451 1.3741839e-38
1.592259732 1.187231535 1.835634281 4.14916628e-39
-0.4719990437 0.6712586828 3.033876432 7.658381972e-39
-1.139360481 0.7006306046 2.178770648 1.161989757e-38
1.122203133 1.294481397 4.228900301 7.286719785e-39
2.080419919 0.01289770957 2.942628631 1.337233621e-38
-1.306196539 1.115049945 1.345116815 1.014332556e-38
1.585353148 1.377018389 1.83605193 1.004532015e-38
0.2176242311 0.9069781271 3.004521312 7.656942839e-39
1.201133889 1.277252175 4.03200952 1.107437769e-39
-1.202547009 1.388809429 2.109386296 4.334282011e-39
-0.1623894135 1.124611527 4.397619189 7.658021839e-39
1.574094591 -0.5045226672 4.738003304 2.492521808e-39
1.404857079 0.69015885 2.760300949 1.152589847e-38
1.48174025 1.304479523 4.171674654 4.334284814e-39
1.971310252 0.5090878024 2.04926213 1.060828059e-38
1.130800353 -0.3086189442 4.801857018 7.011189474e-39
1.996462039 0.1030614959 4.401039373 9.222813999e-39
-1.185786929 0.1152366964 2.098810726 1.300319776e-38
-0.9240606527 1.423504071 2.442592749 4.88745579e-39
-0.9690048553 1.37101022 3.619868488 1.004932366e-38
1.461793975 0.9277633218 2.785888262 1.088161367e-38
1.976377524 0.07686812919 2.031593623 1.291063639e-38
0.8380321141 -0.8735980807 4.770723121 1.042026417e-38
-0.5094538385 0.4272128351 3.073840465 1.846811884e-39
-1.045651472 0.2895681248 3.086428313 1.023587572e-38
1.326236906 0.1149755998 4.43204454 1.420209407e-38
1.289360874 -0.2915329719 4.695423082 1.07912075e-38
1.581032746 1.184179298 1.819366922 3.503796871e-39
-0.6164460416 0.5436693245 3.141012201 1.384021856e-39
0.6134353569 0.4287633754 4.92805602 3.229393205e-39
-1.212455451 0.7230998133 1.538533431 1.115891942e-38
1.263124305 1.424548817 2.980955621 1.207762471e-38
1.757353656 1.445821147 2.817101089 1.087908432e-38
-0.03547367875 0.3117590271 3.066496211 8.395586878e-39
0.3774657454 1.405775805 3.135972577 1.106347839e-38
1.554164043 1.473129392 2.404417324 1.253825253e-38
-1.287078967 1.129761819 1.512149511 1.032843989e-38
0.8115894433 1.415662884 3.102295637 7.55967591e-39
0.07263509607 0.4330453075 3.063357698 8.486703508e-39
-0.9620390094 0.6500385044 3.692453703 1.005148446e-38
1.47668815 1.338241117 3.167442065 1.078652296e-38
0.3712542215 1.433359232 2.676816947 4.611959111e-39
-1.220358169 0.2584428756 1.859791386 1.290991752e-38
0.393920712 1.14207435 2.988222341 7.379991612e-39
1.611725886 0.4536506219 2.731020786 4.887461396e-39
-1.2844362 1.132268221 1.538846582 1.032843989e-38
-1.21248203 0.8011781358 1.834917677 1.106600493e-38
-1.17110491 1.429508563 2.346500142 4.151688617e-39
1.573602413 0.9056705952 1.770858016 1.581043018e-39
1.193241061 0.1126610818 4.46617309 1.097632183e-38
-1.1716627 0.7104662223 1.89492374 1.134331349e-38
1.550610304 1.348102962 1.695573804 1.281699742e-38
-1.232577672 0.5436781907 1.73848246 5.903404183e-39
-1.221516946 1.370924091 1.998392266 4.426477641e-39
-1.202800847 0.6086653558 2.07608186 7.100868372e-39
-1.276398202 0.2572825497 1.392975412 1.33712516e-38
-1.277983817 0.3235911744 1.473682751 1.466342675e-38
0.8832157694 -0.5041990584 4.846434259 1.849310399e-39
-1.293785563 1.040765528 1.40985414 1.042063552e-38
-0.6737100382 -0.2338935509 3.164659971 6.733531992e-39
-0.496379312 1.422644356 2.583106983 2.952069232e-39
0.6369272908 -0.1048815343 4.762582199 1.757479107e-39
0.7508534526 0.5545532827 3.049899736 7.657297367e-39
2.14475424 -0.5627750172 3.429796748 1.512694686e-38
-0.5963701009 -0.403560536 3.784792198 7.377107739e-39
1.557154045 1.083337096 1.749505819 2.591230673e-39
-0.9722138451 1.091749989 3.764840768 1.060430371e-38
1.297219093 1.4266625 2.976987538 1.152445093e-38
1.632922082 1.303749548 2.794702088 1.023587572e-38
1.554185757 1.343465008 1.663903959 1.327653644e-38
1.52408904 0.4559909298 2.724372267 3.503082209e-39
-1.116195906 1.032670301 2.810156408 1.134259182e-38
2.068326794 0.04538671393 2.77296734 1.318722328e-38
-1.220186903 0.8019121485 1.726538906 1.115820056e-38
-1.105889599 0.1220395857 2.609818636 1.309430878e-38
1.925111179 -0.483632766 4.563934774 1.014619121e-38
-1.257857328 0.1439456115 1.536396365 1.300283202e-38
1.543269192 0.567482729 2.831235952 1.93684531e-39
2.08506711 0.1658163228 2.845953818 1.364748256e-38
-1.065474265 1.611318034 3.317838544 1.069469306e-38
-1.066722881 0.1904773699 2.902414344 1.198723816e-38
-1.058915827 -0.3591129854 3.03480569 1.272624513e-38
1.122190853 -0.8597957676 4.6893174 1.115711315e-38
1.634902956 0.4512884935 2.75065931 5.348439545e-39
1.592680498 0.9083857882 1.847648201 1.671077846e-39
1.858410955 0.6971519354 2.703610333 4.154234777e-39
-1.101266024 0.6936369421 2.381692768 1.115855649e-38
-0.4885350102 1.420075069 2.57273377 3.136104562e-39
-1.193196612 0.8957775453 2.095913813 1.088161367e-38
1.429743125 0.1183550812 4.392000826 2.124821091e-39
1.481580066 0.9399966512 3.156622682 9.496503003e-39
-0.3378798266 -0.6961082958 4.851600546 1.364711402e-38
-0.5580156667 -0.8941491673 4.829110983 1.244820509e-38
-1.236145837 0.9808398211 1.853604086 1.060574564e-38
0.4969199037 0.6742425243 3.029633742 7.840615233e-39
-1.012787219 1.365862197 3.566587468 9.404317182e-39
1.618737938 0.9336742562 2.772355498 1.041991525e-38
-0.9769312849 0.5092816594 3.617132276 1.014188222e-38
-1.095542819 0.5646767303 2.764999286 1.079122711e-38
-1.06482403 -0.08353001972 3.002920245 1.143514198e-38
-1.070846549 1.323234495 3.22779564 1.023407785e-38
1.203033042 1.424706411 3.010055861 1.216982034e-38
-1.295221203 1.292300131 1.477898705 4.058063663e-39
2.090990814 0.5578761224 2.938171509 1.254149093e-38
-0.9357079386 1.405778053 2.974021116 1.161556196e-38
-1.277255721 0.255294137 1.40218869 1.327905597e-38
0.7273348179 1.270473126 2.988273348 7.838085889e-39
2.124033808 -0.4807381641 3.153497693 1.475490352e-38
-1.102941398 1.154098965 2.846184198 1.115675862e-38
-1.303502197 1.115455711 1.352546623 1.014332556e-38
-0.2100717981 1.40176601 3.122421107 1.060177857e-38
-0.5286991757 1.422034557 2.572306856 2.397453517e-39
-1.228143055 0.4512609781 1.783617538 1.171246034e-38
1.561696411 0.3347277347 2.729186185 8.93897539e-39
-1.138874981 0.5811440589 2.50808774 9.038787077e-39
0.5781866404 0.9586887111 4.28860968 1.152807189e-38
2.148370367 0.2230507181 3.434145914 1.263333344e-38
-1.257658061 0.1581514296 1.47701244 1.300318795e-38
-1.068184401 1.180719218 3.133087223 1.060430231e-38
-0.4502642791 1.423190181 2.596134948 2.121956837e-39
0.03203141529 1.434557776 2.702800344 4.703433072e-39
-0.6296957754 0.6655376896 3.209820494 5.810133758e-39
-0.9418212672 0.3414945271 3.860464317 7.744065768e-39
1.646677655 1.057067825 2.781311848 1.014440456e-38
-1.110771919 -0.1048816636 2.576918099 1.346417591e-38
0.5028090987 -0.4836717794 4.791888022 2.676907463e-39
2.012361285 0.6024354128 2.250957147 4.069969095e-39
-0.2506980236 1.140554086 2.987752856 7.195245823e-39
-1.172633933 0.9999333957 2.245716006 1.08808934e-38
-0.3867537068 -0.1328792321 4.908351176 2.584714636e-39
2.047391143 0.3295118061 2.617408533 1.245001277e-38
0.7290609706 0.7950914572 3.01574601 7.472190044e-39
0.02224382593 0.906551221 3.013962918 7.748419603e-39
1.523905213 1.306119687 4.166738385 3.873303862e-39
1.618690763 -0.8648843503 4.60612711 1.32783315e-38
1.586660013 1.287692517 3.948678523 9.127364554e-39
-0.2884443901 0.4304582214 3.065654814 8.39451068e-39
-1.120681582 1.026678708 2.714083017 1.09738093e-38
2.090557799 0.0204910698 2.897561843 1.328014058e-38
1.61636796 0.8156067884 2.029868994 2.035540162e-39
-0.5326180434 1.422482519 2.573456526 2.489649147e-39
1.566208668 1.274021205 1.803385884 1.050269836e-38
0.555197858 0.5541311814 3.054650175 7.841336901e-39
0.9308461391 0.7983297483 3.230548028 2.94990843e-39
0.3562294163 0.3117978867 3.07118995 8.578180271e-39
-1.070449629 0.1933136517 2.884327972 1.235781854e-38
-0.987176616 0.09178275072 3.510576808 4.517222927e-39
-1.167804051 1.227335493 2.442478403 1.014405143e-38
0.7965334075 1.442491907 2.626024375 4.612313639e-39
1.469312289 1.169258886 2.803526933 1.078977257e-38
-1.176395463 0.4091877393 2.135992402 1.392550438e-38
1.973391885 -0.04249957529 2.06400906 1.300355089e-38
-0.4565917499 -0.5455753352 5.019779146 5.720082114e-39
-0.4789675616 0.3065270982 3.064459278 8.57781173e-39
2.122354611 0.2474874249 3.249224029 1.281844356e-38
-0.5584089846 -0.05135411552 4.418761055 1.208051279e-38
-0.6995589673 0.7924789459 3.297031609 5.162955272e-39
0.7281490095 1.269355311 2.980055092 7.653694629e-39
1.449768566 1.188999715 3.023288984 1.060249463e-38
-1.074850621 1.046626572 3.048365663 1.07890495e-38
-1.254795318 0.2184257564 1.592532664 1.300318655e-38
1.64671228 1.028274402 2.283944318 3.969117644e-39
-1.213281044 0.893547079 1.984609928 1.069722241e-38
-1.244126869 0.8893507821 1.767861266 1.088161367e-38
0.5594194478 0.3086199868 3.085739613 8.301593382e-39
1.152731828 -0.2872980649 4.695501304 4.614100295e-39
-1.220580076 0.3445980559 1.899611362 1.33723306e-38
-1.287186236 1.048454694 1.520606091 1.051283115e-38
1.251933614 1.427438351 3.003689721 1.198506895e-38
0.08198434967 0.7898227166 3.02310633 7.750217469e-39
-1.177479983 1.334863182 2.425271419 4.610868901e-39
-0.5626247685 -0.4983904507 4.816045468 1.364819302e-38
1.592091938 0.8163127563 1.784910265 1.948387806e-39
2.086038138 0.303483849 2.814163461 1.263368656e-38
-0.726725948 -0.1040875441 3.170833312 5.626465568e-39
-1.145509637 -0.1824028371 2.42288303 1.374111873e-38
0.166037341 0.9069191753 3.011014123 7.564747209e-39
1.624113382 1.107356749 1.970991555 1.853665635e-39
-0.4305073042 1.142834638 2.980088996 1.069868256e-38
1.175997088 1.422084596 3.006574677 1.161664656e-38
0.113700404 -0.110767928 4.806432748 1.438792727e-38
-1.200297694 0.134733499 2.005106647 1.300355089e-38
-1.099528361 1.160704865 2.915387058 1.097344076e-38
-1.224217508 0.7267955515 1.436382217 1.097416523e-38
-0.2343160803 1.402500315 3.124139692 1.06939742e-38
0.8213165294 0.4309828185 3.069125251 8.024637951e-39
-0.3291341371 0.9075652813 3.011874637 7.472551579e-39
1.632950639 1.208768969 1.98974622 2.304890747e-39
1.526280615 -0.5034234479 4.743424296 6.179991073e-39
1.565009206 0.9944255195 1.755010235 1.855469106e-39
-0.8596467845 -0.05155796452 4.377786101 6.179639347e-39
1.945579912 0.7117387359 2.316504141 3.33240826e-39
-1.274945363 0.805083996 1.466408994 1.097416523e-38
-1.287777991 0.8844812118 1.451165773 1.078941804e-38
0.6111427208 0.7936516896 3.016694965 7.749138469e-39
1.640923959 0.8166811821 1.980265475 1.764715412e-39
-0.02462817 0.6720567651 3.031255468 8.117919587e-39
-1.073867639 1.417683767 2.987987394 8.939711071e-39
1.631563205 0.8157542088 2.09135799 2.495079178e-39
-0.4022695493 1.259854512 2.971608776 7.746962252e-39
-0.3556186974 1.418505305 2.592526355 4.059142663e-39
-1.259348099 0.5597022777 1.557130511 1.032771542e-38
2.182430853 -0.3713425819 3.996415633 1.475743426e-38
-0.6483661359 -0.01321660773 3.385276786 6.088165386e-39
0.6344267337 1.437519174 2.647366717 4.612316442e-39
0.7652354399 1.271396287 2.983797268 7.654772228e-39
1.147427164 1.421879982 3.017852723 1.14322553e-38
1.577313338 0.8168088827 1.645606579 3.424239552e-39
0.4289570886 -0.8703067314 4.791552892 1.032734968e-38
-0.6321838342 -0.043873205 4.36620255 6.364030607e-39
-1.27325675 0.9640339023 1.481146522 1.051283115e-38
-1.16658594 1.335679428 2.436814119 4.795262963e-39
-0.6433417817 -0.4260279222 3.346526534 7.563656999e-39
1.422454298 1.291122324 2.834739289 1.124930598e-38
1.614201489 1.127653973 3.925165412 8.758217697e-39
0.09639110334 1.022352927 2.992352982 7.471832713e-39
1.809624872 1.190199678 2.758081816 4.796704899e-39
2.038478465 0.0915241759 2.535282139 1.309466471e-38
1.657078345 1.141137818 2.338711632 4.060594408e-39
-0.9931486763 0.2279728462 3.558080742 7.283087619e-39
-1.201818995 1.095563582 2.162335497 1.032843989e-38
1.96804924 0.05991091354 4.734475078 3.507749934e-39
-1.264858968 0.8041866875 1.548629536 1.106636086e-38
-1.249919778 0.05063420748 1.562115631 1.318794215e-38
1.506173526 0.4416836244 2.87437365 7.834787232e-39
-1.059352752 0.3003237237 3.002302738 1.115927395e-38
-1.249933665 0.3055762057 1.589406323 1.383330875e-38
0.666846712 -0.5082196776 4.882030298 3.692867066e-39
-0.221714461 1.403541832 3.1312533 1.060177857e-38
-0.8070368022 -0.1096429041 3.177246321 6.086364717e-39
-1.145220699 0.4875894561 2.349550961 1.09759729e-38
1.985315909 0.2711295064 2.196432719 1.254185387e-38
1.773634395 1.18829057 2.768863769 8.668195481e-39
-0.06360286884 0.7895186525 3.019351561 7.658021839e-39
-1.172593815 0.7139963236 1.79260796 1.115820056e-38
-1.159174861 1.011924352 2.452777791 1.07901369e-38
-1.170785633 0.1975339859 2.200917073 1.281915963e-38
-1.17540513 1.005625542 2.337480018 1.097452816e-38
-0.07585845177 -0.8938117014 4.865518848 1.309394024e-38
1.583281693 1.126727843 3.9318927 8.759655429e-39
0.6909112896 1.266625798 2.970922884 7.838084487e-39
-1.175231123 0.4997629547 2.216074411 1.116000963e-38
-1.025545262 1.077020052 3.526639745 9.589790245e-39
-1.044173283 0.5414185175 3.124239998 1.124967172e-38
0.1467042672 1.256465889 2.984768942 7.471832713e-39
-0.6749243407 -0.1208296632 3.2500352 6.180358213e-39
-1.121803847 1.386551671 2.77671633 4.886735523e-39
-0.2318736361 0.958518503 4.388443938 1.115928656e-38
1.463381064 0.8085799822 2.968987852 9.496865939e-39
2.138897186 -0.6216804156 3.634941065 1.586306015e-38
-0.5233825202 -0.7018134979 4.854133613 1.364567209e-38
1.68753476 1.130622798 3.919477351 8.297239548e-39
-0.8380922707 0.01803052832 3.196990563 5.810130955e-39
-1.274680763 1.301921811 1.557030916 4.242089184e-39
-1.25860636 0.639167591 1.59226118 1.152698588e-38
1.556426695 1.125338969 3.928556672 8.85149653e-39
-1.218821851 0.06524970374 1.877172127 1.28198855e-38
-1.102427018 0.7968090393 2.782664056 1.171173027e-38
-0.1651729104 0.9573320607 4.360572054 1.125148079e-38
-0.2751786574 0.4300223623 3.071127882 8.394154751e-39
-1.278011264 0.885451247 1.523808638 1.06982958e-38
0.9657102216 -0.8476284729 4.67371213 1.115783202e-38
-1.271240591 0.2349678551 1.504354766 1.318686034e-38
1.657225778 1.255996671 2.379890249 6.823195476e-39
1.515470262 0.4480887964 2.807103859 1.196750927e-39
0.5346955667 -0.8413703788 4.695918272 1.042026698e-38
-0.9799299153 0.3600344394 3.669883471 8.021371524e-39
-1.169434901 1.428653007 2.342967361 4.059492988e-39
1.102081403 -0.4689557387 4.674444041 1.079120469e-38
-0.9954043372 0.7955148793 3.484233943 9.866019803e-39
-0.7831208212 -0.1069723138 3.17124905 5.810856828e-39
0.08329396393 0.3114878869 3.073004597 8.671094767e-39
-1.093089053 -0.2819220418 2.771732314 1.355744774e-38
-1.228457108 0.8017586649 1.794626101 1.097452816e-38
-1.281250296 1.13060184 1.526423809 1.023624426e-38
0.680991167 -0.8438365131 4.692888906 1.032915035e-38
-0.4139756167 0.9080177114 3.004033297 7.472551579e-39
2.074005203 0.02491763547 2.880853433 1.328014058e-38
1.152083493 -0.2893684112 4.705634458 5.075078444e-39
-1.012243914 0.5266119421 3.351818638 1.032771682e-38
-1.214039051 1.387854315 2.096503992 4.518673271e-39
-1.169382581 0.7097788864 1.914582487 1.125111505e-38
-0.06662014148 0.7895215638 3.021208968 7.658021839e-39
-1.252854175 0.31473996 1.537039482 1.429464143e-38
-1.265515072 0.4787219357 1.543936511 8.483807024e-39
0.33528603 0.3109246975 3.078004861 8.761492531e-39
1.529192171 -0.2872278227 4.631176272 3.23116865e-39
-1.058150774 0.2944629846 3.046695718 1.143406298e-38
-0.7015191294 0.02675535978 3.181923909 6.364383734e-39
0.1202081987 1.139467059 2.992220683 7.379994414e-39
0.04587707132 0.6722055826 3.033042264 8.117923791e-39
-1.143556128 1.018984486 2.577278267 1.088233253e-38
-0.9435361417 1.4217273 2.424837956 4.97965142e-39
-1.23921402 1.260942048 1.899418884 4.518673271e-39
-1.289516446 0.8838148296 1.411667054 1.078941804e-38
-1.266990759 0.5615340496 1.534460626 1.023660019e-38
1.590855711 0.4447642798 4.688543425 3.136829033e-39
1.625267414 1.054863177 2.765250784 1.023660019e-38
2.035441606 0.4689174516 2.466585221 1.318685894e-38
-0.6669727509 -0.2525752043 3.23302623 6.640981834e-39
-0.3824542889 1.401810158 3.100750344 7.65187154e-39
1.471762256 1.421743539 2.851778273 1.253932453e-38
-1.159741661 1.356854151 2.573521861 4.611590569e-39
1.484877845 1.072759093 3.172605033 9.496503003e-39
-1.079384072 1.410479313 2.942111538 9.124459662e-39
-0.9527915932 0.3403538188 3.870047956 7.651870138e-39
1.508835299 0.2901808599 4.402541957 3.138254154e-39
0.6820913369 -0.6668509942 4.748647055 1.438756433e-38
0.1452399777 -0.2796235156 4.725036249 1.758202177e-39
-1.14623007 0.04986207416 2.402919131 1.328013778e-38
0.1378888484 1.340885929 2.793006692 8.384724012e-39
0.3974756945 1.256565485 2.961250629 7.746610526e-39
1.559148868 1.255231681 1.673041734 9.950966516e-39
-0.9237471515 1.408419738 2.994238064 1.143081336e-38
-1.267834481 0.3931633605 1.561559808 1.217488323e-38
-1.137378126 -0.06894586714 2.431733375 1.355672747e-38
2.087684026 -0.2697279734 2.939174479 1.420281995e-38
-1.180610536 1.000905249 2.25512001 1.097308903e-38
-1.295334942 1.288349559 1.453017588 4.334284814e-39
1.425572223 0.6463619738 4.089579732 2.489647745e-39
1.577598396 0.810549995 3.896971479 1.207762751e-38
1.770741068 -0.4878014658 4.622143408 6.918988239e-39
-1.234854849 0.2093467614 1.646002023 1.300283202e-38
1.993764864 0.492848096 2.219863936 1.042351799e-38
-0.4576577806 1.264063767 2.99085383 7.378904204e-39
-1.216894534 1.181314376 2.034001054 1.023660019e-38
0.1529077574 0.6724430564 3.036935529 7.842057169e-39
1.288027532 0.6436970241 4.136832956 1.845002807e-39
1.107382764 -0.4688858157 4.673393382 6.08922757e-39
1.26884298 1.424669324 2.978912732 1.189323345e-38
-1.219593316 1.380647486 2.053299598 4.610868901e-39
-1.257495559 1.323782837 1.702714279 4.15061242e-39
0.04581771819 0.6720773576 3.037039387 8.117923791e-39
-1.176178407 0.7988293408 2.284409912 1.134331068e-38
1.566643575 1.085243311 1.762253532 2.315005319e-39
1.610080196 0.8126113663 2.760167596 1.042135438e-38
2.158749801 -0.5719490816 3.455495678 1.512694546e-38
0.5909725009 0.6751151838 3.019122795 7.748419603e-39
-0.2150646088 0.6301394472 4.322369011 8.394506477e-39
-1.148382982 1.230533892 2.479483551 1.014404863e-38
-1.245102188 1.066712695 1.793440932 1.042063552e-38
-0.5640974345 -0.04173997416 4.36227038 1.337089567e-38
-1.035222933 0.795848826 3.280255628 6.362940397e-39
-1.101572272 0.3411610755 2.682560675 1.281807782e-38
2.067490451 -0.1924370769 4.019290054 1.457087379e-38
0.5990350064 0.7935269687 3.021570541 7.656942839e-39
0.7969479925 0.3097693712 3.057554325 8.300871713e-39
2.081941233 -0.1069296546 2.84848977 1.364964337e-38
-1.029926642 0.6774583638 2.861033267 7.377455261e-39
1.715133982 0.8135020754 3.884811293 1.217091055e-38
-0.3426694454 1.140785262 2.976841092 2.12376171e-39
-1.290097 1.300846718 1.535858845 4.242086381e-39
1.509377349 0.4424016028 2.866448376 9.954936394e-39
-1.192164608 0.7167981911 1.715011307 1.134259182e-38
-1.075095698 0.9195326481 2.994420147 1.051210808e-38
-0.5466416801 -0.9003142493 4.849710672 1.235600947e-38
-1.214395844 1.189901133 2.107618007 9.960376235e-39
-1.226710511 0.891845948 1.898288532 1.09738093e-38
-1.082994448 0.9197136464 2.993746721 1.097308623e-38
2.037342996 -0.1728869903 2.572364797 1.36499993e-38
-1.233146898 0.7299822647 1.348915587 1.097452816e-38
0.09985847788 1.022510206 2.994344279 7.564028343e-39
-0.653516861 0.00330704293 3.304359232 6.088165386e-39
-0.7562221684 -0.104321759 3.165838425 5.718661198e-39
-0.2465397295 0.9071125068 3.01430792 7.656581304e-39
1.710566981 0.8153752581 2.745065624 1.005220893e-38
2.144834842 -0.08888943669 3.456422143 1.429501277e-38
1.614616909 1.016164691 2.102657853 2.494713439e-39
-1.272925186 1.235740421 1.695181199 4.611587767e-39
-0.9673654405 0.6528614937 3.606227242 1.051354161e-38
-1.228850491 0.2791749217 1.744300841 1.318686034e-38
-1.230436351 0.9778706188 1.80558112 1.060502678e-38
1.145733071 -0.1074989004 4.731797519 9.776339504e-39
1.418640097 1.395298092 3.631218952 1.060068836e-38
0.5298523637 0.5543302874 3.051268076 8.117559453e-39
1.798498825 1.316213043 2.77033228 7.930633245e-39
1.212978567 -0.8536287745 4.654710859 1.281699742e-38
-0.6697389508 -0.1290351978 3.284879212 6.4569423e-39
-0.314274104 0.4292958834 3.074665473 8.577458603e-39
-1.270719066 0.8056883284 1.378385589 1.097308623e-38
-1.228026932 0.9868249018 1.969751648 1.078941804e-38
0.4627061225 0.4254872832 4.972643818 2.861326749e-39
1.045305543 1.447691501 2.558923607 4.703433072e-39
0.8418299337 -0.1227998629 4.852462082 3.047861995e-39
1.913284661 -0.2137706153 4.173781749 1.143550631e-38
-0.5729950634 -0.2932218469 3.975324342 6.364752276e-39
-0.6998046169 1.426486396 2.544051211 4.05697065e-39
-1.185175197 -0.08999900396 2.092992367 1.36489231e-38
2.091585453 0.5544717188 2.990854936 1.272480319e-38
-1.311340823 1.115756387 1.345947672 1.014332556e-38
0.1364498237 -0.2827337119 4.739789192 1.758204979e-39
0.4079438003 0.7916831081 3.024641405 7.656942839e-39
2.039164593 -0.2922744999 2.524136708 1.383475349e-38
1.514782892 -0.6850539567 4.690783271 1.438648253e-38
-1.10326995 -0.2135828525 2.542465934 1.337305648e-38
-1.176197623 1.427147242 2.331052191 4.151688617e-39
1.895309543 -0.4934770389 4.614052175 1.940780156e-39
1.70705573 1.129120325 3.882191638 7.283440746e-39
0.5347666211 1.408889479 3.129268081 8.942976097e-39
1.824896389 1.44703585 2.774455059 2.766231832e-39
-0.2537633899 0.3085113339 3.074933356 8.671094767e-39
-0.9765553209 0.9461014182 3.83834381 2.766587762e-39
2.054975507 0.4528534003 2.633444585 1.254148953e-38
-1.230014546 0.3721097768 1.718093964 1.558503133e-38
-1.007374695 -0.3986705062 3.177649344 5.441348436e-39
0.505348857 1.407553441 3.126974664 8.113215428e-39
-0.9560224598 0.6482277494 3.747718744 1.005148446e-38
-0.3816455412 1.26147051 2.98666548 7.562573795e-39
-0.1916837086 -0.4997759484 4.853783764 9.961083891e-39
1.634565263 0.9340523089 2.762288019 1.0051853e-38
-1.107915235 0.9123828953 2.745575743 1.134331068e-38
0.757064092 0.6759085251 3.027084922 7.289239319e-39
-1.272476165 0.646701924 1.47104113 1.143550631e-38
-0.7848949238 -0.378814833 3.168597383 5.903052458e-39
0.0317427258 0.4327303954 3.064812519 8.48635038e-39
-0.5680695701 -0.1441594295 4.029114369 6.27183778e-39
2.150458712 -0.6444452188 3.708122094 1.558647046e-38
0.2886833067 -0.4940860448 4.841004895 2.862020391e-39
-1.151028986 1.119271869 2.455355243 1.051283115e-38
-1.278155349 1.134142547 1.563130269 1.051283115e-38
-1.017122469 0.3877918883 3.386436498 9.589064372e-39
-0.2555816622 1.02310241 2.987805235 7.748051061e-39
-0.5493692475 1.404018002 3.081207827 8.850413327e-39
-0.2815078088 0.9072935354 3.013562678 7.564747209e-39
-1.054166733 0.1569590732 3.106853322 1.023587572e-38
1.425794641 1.290927677 2.831176622 1.124930598e-38
1.93015763 0.7190872438 2.10303367 7.520068209e-40
1.686792337 -0.8617585676 4.579038959 1.309394024e-38
0.9728659662 -0.4720109565 4.704199067 6.826792609e-39
1.551719192 0.5708700064 2.778982184 3.320135688e-39
-1.292739807 1.285097468 1.435156104 4.057700727e-39
0.3836895522 0.7914406258 3.006735732 7.749138469e-39
1.554036975 0.4546493895 2.732323236 4.241010184e-39
-0.978642087 1.245364413 3.806801515 8.390165254e-39
0.1446286606 0.7900619561 3.026776986 7.933532531e-39
1.005234361 -0.2966130499 4.759650189 9.868172197e-39
-0.4851064263 1.144597319 2.985056245 1.143480426e-38
-1.20655311 -0.04631729944 1.931731947 1.24543666e-38
-1.173464782 0.1975907612 2.199589574 1.281915963e-38
-0.1687259506 0.3089654353 3.078598015 8.395230948e-39
-1.165030976 0.7093587516 1.926182921 1.125111505e-38
-1.066745628 0.06388252217 2.913663266 1.198796123e-38
-0.9981302064 0.6649149495 3.23965848 9.683789345e-39
-1.074849951 0.9218265392 3.064351204 9.960011897e-39
2.162619009 -0.1085357432 3.552745492 1.43872084e-38
-1.18753015 0.7996098537 2.090263592 1.106600493e-38
1.373309906 0.6452890245 4.109091633 3.227934453e-39
1.658439041 0.2644576203 4.642017321 9.960727961e-39
-1.262693085 0.1537657493 1.492453032 1.300318795e-38
1.467302523 0.117627355 4.391639818 2.677276004e-39
2.043169235 0.0719321295 2.640179702 1.309502765e-38
-1.025288552 0.2623839792 3.294723703 9.589061569e-39
-1.113869126 -0.1225397741 2.642146086 1.346453184e-38
-1.163218219 0.06922781123 2.311691162 1.309574652e-38
-1.147492898 0.4763428102 2.46425539 1.410990125e-38
0.05566681737 1.138987569 2.989607055 7.379637083e-39
1.655027134 1.144325647 2.377488149 3.969120447e-39
1.805426509 -0.8643597457 4.555926992 1.263296209e-38
-1.246272729 0.551204109 1.653361451 1.014296122e-38
-0.1148742156 1.423020274 2.643274 3.598161711e-39
-0.2123236689 -0.6879406916 4.831655238 1.392442398e-38
0.155161271 0.3106609304 3.080470952 8.67109757e-39
-0.8278583284 -0.3802635889 3.163547138 5.810856828e-39
2.13218471 -0.04885060371 3.250276425 1.383403463e-38
1.750251382 0.8142684776 3.907671351 1.476574817e-39
-1.179384131 0.5089004656 2.120256543 1.134440089e-38
-1.155448454 1.228013121 2.455348208 1.014404863e-38
-0.6803244868 0.6650353257 3.22568835 5.716491988e-39
-1.185790201 0.7993536353 2.161103558 1.106600493e-38
-1.289463321 0.6508215249 1.402283985 1.088233253e-38
-1.098886246 -0.2644904004 2.712408706 1.365036503e-38
1.580588293 1.398179969 3.568661447 8.480191674e-39
1.666925301 0.4511169831 2.745729848 4.980373089e-39
1.702534531 0.4488326766 2.761801123 5.074010655e-39
-1.096790502 1.428061857 2.380737183 4.335000877e-39
1.388335195 0.1162698834 4.413664163 1.005328793e-38
-0.3535368144 1.400304597 3.096729249 7.836265602e-39
-0.6187620362 -0.4931385834 3.562448196 1.466235336e-38
-1.13553323 1.128551874 2.563067656 1.078869497e-38
-1.248424832 0.8897011795 1.774599951 1.09738093e-38
1.618527316 0.8158986116 1.990301224 2.039863168e-39
-1.052467838 0.5373536018 3.184520162 1.08819682e-38
-1.239259912 0.2820384928 1.723735254 1.300354808e-38
-1.201998563 0.8007245525 1.88071896 1.125039619e-38
-0.8546247463 -0.3855464698 3.1742005 5.626465568e-39
-1.204830459 0.3441984153 1.908744418 1.346452623e-38
0.4382578595 1.259737169 2.977115667 7.655133763e-39
0.7359346527 0.6756351035 3.031166207 7.472551579e-39
-0.6614383144 0.5388164758 3.209081079 1.845354533e-39
-1.092031535 1.172478017 3.038604279 1.088052626e-38
-0.04405645254 -0.3043803975 4.838764917 1.663474401e-39
-1.068931747 0.309651305 2.929673971 1.143514338e-38
0.07706891723 0.6725508808 3.025366175 7.657665909e-39
1.665802161 1.474618893 2.329668232 1.180140356e-38
1.056005817 -0.5041124097 4.825596752 3.138970217e-39
-1.05024277 0.04784499057 2.998189791 1.125110665e-38
1.667512103 0.8141288963 2.767287703 1.032915875e-38
-0.9658256933 0.3590696451 3.681863351 7.929175894e-39
0.1494709786 0.5536673875 3.049133322 8.118644058e-39
1.474707869 1.203249002 3.154638482 9.680894263e-39
1.659330904 0.5073085368 3.740833963 7.379321791e-40
-1.248755091 1.256659934 1.862476422 4.519392137e-39
1.807469223 0.6961739688 2.714245406 1.014513464e-38
1.583679967 0.9682079378 3.923650717 8.849687454e-39
2.00042805 -0.07561807939 2.188742755 1.309574652e-38
-0.6547643428 1.419345241 2.523886846 3.781108232e-39
1.189831412 0.2849840786 4.485723245 2.124102225e-39
1.707998254 1.308890949 2.780872203 9.774181504e-39
-0.4435976599 -0.3220854266 4.897079216 9.961083891e-39
1.903168052 -0.4933106569 4.61122905 4.656500784e-40
-1.279536978 1.133666018 1.557217356 1.060502678e-38
1.37707225 1.388061724 3.597092904 4.880939753e-39
-0.06029102543 0.6725225459 3.013778988 1.033024896e-38
-1.204863479 0.4295844323 1.965489832 1.152914808e-38
1.643416452 1.251790689 2.355898837 4.70233025e-39
0.4335955325 0.3102065211 3.080392749 8.578180271e-39
1.44114648 1.408566219 3.719677068 9.401419297e-39
-1.230107708 0.8022747793 1.705862276 1.115855649e-38
-1.296644738 1.121585944 1.4220457 1.041991525e-38
-1.056003521 1.324438344 3.24305842 1.004968659e-38
-1.292670941 0.5792043236 1.330554384 6.824281482e-39
1.560671199 1.172126274 1.729668577 5.897621025e-39
-0.4608644137 1.263373242 2.985296374 7.378185338e-39
-0.2573223406 0.6711806674 3.04298312 8.117920988e-39
0.9656957859 -0.1083987083 4.757418376 5.904484585e-39
-1.283195496 0.8063760309 1.342512446 1.051355001e-38
-0.4570934779 -0.1272962224 4.869713474 1.20178299e-39
-1.28283984 0.3414288649 1.369414235 1.116036416e-38
0.4967624338 -0.1135093395 4.818818825 1.940064093e-39
-1.138246385 1.42885353 2.361948229 4.243884247e-39
0.2882988806 0.3108031507 3.079615462 8.485987444e-39
0.7438139704 1.414760868 3.115890908 6.72991384e-39
1.522920446 1.472608158 2.423275586 1.32761679e-38
0.3909625668 0.427571349 4.939115233 2.953522378e-39
-0.171786728 1.421792751 2.632802471 3.413773254e-39
-1.293282965 0.9622052077 1.411650354 1.042099145e-38
1.561960155 1.081983789 1.726573675 2.315005319e-39
-1.14066475 -0.05723141234 2.386016907 1.337233341e-38
-1.231394891 1.169039861 1.918342961 1.023660019e-38
1.651943166 0.9145813558 1.983729137 1.855106169e-39
-0.3740632691 -0.7239304388 4.946973613 1.355491839e-38
0.03079004252 0.3120232465 3.067434108 8.578899138e-39
-0.5082085912 1.264332328 2.982001442 7.378185338e-39
-1.271813862 0.06148639662 1.508977981 1.337161454e-38
-0.5055089269 1.027639 3.002381852 1.846090215e-39
-0.9224180943 -0.1200490395 3.194343056 5.442071506e-39
-1.276721771 0.2593128122 1.382817336 1.337197047e-38
-1.075805257 0.796338701 2.971589532 1.023515685e-38
-1.163877809 0.5935374486 2.314861019 7.285984103e-39
1.951018907 -0.1057417268 4.573783026 1.32804867e-38
2.044941239 0.2170288709 2.528830263 1.318686034e-38
-1.260577438 0.4067964281 1.474091994 1.11618047e-38
-0.3133428987 0.3091860663 3.064322839 8.578899138e-39
-0.7220327575 0.02568039618 3.183270494 5.442427435e-39
2.018375731 0.126565234 2.351523694 1.300318795e-38
-0.1534373531 1.123602786 4.384116863 7.565826209e-39
1.508405071 0.1864983627 2.911431679 9.492146366e-39
-1.045066639 1.413808751 2.9772423 8.755677143e-39
1.082454083 1.523736648 3.639464148 2.120136551e-39
-0.9706677527 0.5034522279 3.705558431 1.041810898e-38
1.621406821 1.420932761 2.060888191 1.059489399e-38
-1.067983317 1.414477598 2.971281303 8.940068402e-39
-0.3234052543 0.5511938732 3.055645053 8.117923791e-39
1.58505464 1.46918244 2.360671331 1.189360339e-38
1.562697508 1.174557639 2.791442595 1.042099005e-38
-0.9952981743 -0.2599003192 3.185837618 5.441351238e-39
-1.210983388 0.8011820641 1.826475998 1.106600493e-38
0.9953165543 0.9324329661 3.364233133 3.135741626e-39
0.9637153897 -0.1128825991 4.783734409 2.49324628e-39
1.561079038 1.347323622 1.680636817 1.318434081e-38
0.9926625715 0.5473573002 3.156172011 1.383653314e-39
1.636556139 0.917595974 2.143708073 2.771663265e-39
-0.001245945384 0.671969862 3.03601124 8.117202122e-39
-1.295028525 0.6555810839 1.325612857 1.032843989e-38
2.09485475 0.418380256 2.989139628 1.26318915e-38
1.187858317 1.450032946 2.50394579 4.612313639e-39
1.655834971 0.9222832736 2.293403649 4.153511707e-39
-1.208133456 0.4336898388 1.931726959 1.134475682e-38
-0.2578023289 -0.1216702938 4.853434461 4.705577059e-39
1.630091346 0.5068026238 3.749762147 8.297718792e-40
2.079050549 0.2988905995 2.853557356 1.254149093e-38
0.009445527067 0.6721195633 3.032303038 8.117204925e-39
0.9457179464 -0.2981376395 4.773741979 4.522627735e-39
-1.069525236 1.589717619 3.209605361 1.253825253e-38
2.094946026 -0.2840924455 2.993196012 1.438793007e-38
2.072050509 -0.3678896021 4.01946704 1.503185194e-38
0.1461165562 0.3111693608 3.076648547 8.57890194e-39
-1.096500881 0.6912126868 2.453493074 1.060358484e-38
