# .PCD v0.7 - Point Cloud Data file format
VERSION 0.7
FIELDS x y z
SIZE 4 4 4
TYPE F F F
COUNT 1 1 1
WIDTH 180
HEIGHT 1
VIEWPOINT 0 0 0 1 0 0 0
POINTS 180
DATA ascii
0.47893500 3.48275089 -0.81162298
0.48079401 3.49626493 -0.81477302
0.48540699 3.49365902 -0.81432301
0.49628201 3.47835302 -0.81117302
0.47999701 3.49047303 -0.81342298
0.47893500 3.48275089 -0.81162298
-1.46047997 3.12062502 -0.06014100
-1.08495200 3.20903802 -0.05912900
-0.97000003 3.23728609 -0.05898900
-0.60390198 3.32305694 -0.05895400
-0.46676299 3.35517192 -0.05912900
-0.09150100 3.44826102 -0.06021100
-1.07661998 3.21395206 -0.05916400
-0.95981997 3.23614693 -0.05891900
-0.59719199 3.33239603 -0.05909400
-0.45743701 3.35242009 -0.05905900
-0.10677400 3.43581700 -0.06000100
-1.45298302 3.11309195 -0.05996600
-1.08031297 3.20638299 -0.05905900
-0.96087998 3.21705389 -0.05860500
-0.60184401 3.33155894 -0.05909400
-0.46434301 3.36358309 -0.05926800
-0.08809800 3.48035502 -0.06076900
-1.08750200 3.20183992 -0.05902400
-0.97798902 3.24950194 -0.05923300
-0.60976100 3.33215189 -0.05912900
-0.46885800 3.34882307 -0.05902400
-0.09489100 3.44016695 -0.06007100
-1.08189702 3.21850896 -0.05926800
-0.95635998 3.21214199 -0.05850000
-0.59690899 3.31416202 -0.05878000
-0.46199501 3.36390591 -0.05926800
-0.10964400 3.43172598 -0.05993200
-1.46047997 3.12062502 -0.06014100
-1.08495200 3.20903802 -0.05912900
-0.97000003 3.23728609 -0.05898900
-0.60390198 3.32305694 -0.05895400
-0.46676299 3.35517192 -0.05912900
-1.14098704 3.22562599 0.05972200
-0.88547599 3.28627801 0.05940800
-0.64927697 3.30633903 0.05881500
-0.42250201 3.38723207 0.05958300
-0.09240300 3.48224401 0.06080400
-1.15302598 3.21497011 0.05961700
-0.90192002 3.29009700 0.05954800
-0.64442199 3.32766008 0.05916400
-0.41616601 3.40413308 0.05986200
-0.10801600 3.47579193 0.06069900
-1.13372195 3.21758795 0.05954800
-0.90712899 3.28659010 0.05951300
-0.65059900 3.33460808 0.05930300
-0.42091900 3.40354896 0.05986200
-0.08814800 3.48235393 0.06080400
-1.13689804 3.20161700 0.05930300
-0.91297501 3.27874398 0.05940800
-0.65816301 3.33312297 0.05930300
-0.40463799 3.40350890 0.05982700
-0.09533200 3.45615911 0.06035000
-1.13203800 3.21818089 0.05954800
-0.90426099 3.28738093 0.05951300
-0.64750803 3.33113503 0.05923300
-0.41697401 3.39597607 0.05972200
-0.08571600 3.48241401 0.06080400
-1.14098704 3.22562599 0.05972200
-0.88547599 3.28627801 0.05940800
-0.64927697 3.30633903 0.05881500
-0.42250201 3.38723207 0.05958300
-1.44938803 3.09692407 -0.17919800
-0.09086000 3.42409396 -0.17951199
-1.47088802 3.10888004 -0.18024500
-1.44783294 3.10206008 -0.17940800
-0.08677800 3.42819595 -0.17972200
-1.46474898 3.11839890 -0.18055899
-0.08472700 3.44223189 -0.18045400
-1.44938803 3.09692407 -0.17919800
-1.11213303 3.14405608 -0.40948099
-0.90819001 3.19034100 -0.40728700
-0.63803297 3.24907994 -0.40655601
-0.41450301 3.32309890 -0.41118699
-0.09009500 3.39529800 -0.41703701
-1.47452199 3.05973005 -0.41703701
-1.11914003 3.12048697 -0.40704399
-0.89873898 3.19095302 -0.40704399
-0.62952501 3.25073910 -0.40655601
-0.08175000 3.39352298 -0.41679299
-1.47879303 3.05766797 -0.41703701
-1.12795103 3.12786603 -0.40826201
-0.91080499 3.21229792 -0.40996799
-0.63292301 3.24401212 -0.40582499
-0.43170199 3.29688501 -0.40826201
-0.08604800 3.39937401 -0.41752401
-1.11663902 3.14456511 -0.40972501
-0.89299601 3.20699191 -0.40875000
-0.64028102 3.24256802 -0.40582499
-0.42005101 3.33440804 -0.41264999
-0.09359600 3.39321709 -0.41679299
-1.12320602 3.12324595 -0.40753099
-0.90206301 3.19207811 -0.40728700
-0.63293099 3.25614500 -0.40728700
-0.43324599 3.32671309 -0.41191801
-0.08357600 3.39546394 -0.41703701
-1.48252702 3.05586004 -0.41703701
-1.11213303 3.14405608 -0.40948099
-0.90819001 3.19034100 -0.40728700
-0.63803297 3.24907994 -0.40655601
-0.41450301 3.32309890 -0.41118699
-0.08960200 3.37670493 -0.53500599
-1.46987796 3.05009389 -0.53625703
-0.08130200 3.37493992 -0.53469300
-1.44349599 3.03862810 -0.53281599
-0.08512700 3.36298895 -0.53281599
-1.45656097 3.04553103 -0.53469300
-0.09297500 3.37068605 -0.53406698
-1.45569003 3.01526690 -0.53031301
-0.08306900 3.37489700 -0.53469300
-1.45400703 3.05112791 -0.53531897
-1.46824396 3.08100295 -0.29859599
-1.11755002 3.15936995 -0.29319200
-0.93833202 3.21092606 -0.29266900
-0.62187302 3.28488302 -0.29249501
-0.43962201 3.33027697 -0.29388899
-0.09016200 3.39782000 -0.29737499
-1.43386197 3.08617210 -0.29772401
-1.10081303 3.13991594 -0.29110000
-0.92880797 3.21161890 -0.29249501
-0.63411200 3.27442503 -0.29179701
-0.40860099 3.34225392 -0.29458600
-1.46362197 3.08099508 -0.29842100
-1.11170304 3.15509510 -0.29266900
-0.91197902 3.21643901 -0.29249501
-0.63792002 3.26962590 -0.29144901
-0.43742800 3.34061289 -0.29476100
-0.08656600 3.41983700 -0.29929301
-1.44508302 3.07653093 -0.29737499
-1.11674297 3.14485908 -0.29197201
-0.92475402 3.23351693 -0.29423800
-0.62138802 3.26672411 -0.29092601
-0.42134601 3.34468794 -0.29493499
-0.09399500 3.40768194 -0.29824701
-1.43403101 3.07950091 -0.29720101
-1.11137295 3.15943599 -0.29301801
-0.93716198 3.22994208 -0.29423800
-0.63677800 3.27593708 -0.29197201
-0.40962300 3.33610702 -0.29406300
-0.08378500 3.40396190 -0.29789799
-1.46824396 3.08100295 -0.29859599
-1.11755002 3.15936995 -0.29319200
-0.93833202 3.21092606 -0.29266900
-0.62187302 3.28488302 -0.29249501
-0.43962201 3.33027697 -0.29388899
-0.08900000 3.35402107 -0.65218502
-1.43577003 3.03465295 -0.65256703
-0.08085100 3.35619092 -0.65256703
-1.42789805 3.00579500 -0.64684302
-0.08490300 3.35412693 -0.65218502
-1.44677496 3.02506995 -0.65180302
-0.06954000 3.37608099 -0.65638298
-1.43505299 3.02630401 -0.65104002
-0.08236600 3.34633493 -0.65065902
-1.43917203 3.01999807 -0.65027702
-0.09250200 3.48598695 0.18275701
-1.45924699 3.14080906 0.18150100
-0.10825700 3.48353505 0.18265200
-1.47148502 3.15273499 0.18233800
-0.11283500 3.49338198 0.18317600
-1.45465302 3.15393901 0.18202400
-0.09642800 3.49587107 0.18328100
-1.46536005 3.14677596 0.18192001
-0.11110500 3.47745109 0.18233800
-1.44858098 3.15233803 0.18181500
-0.11789600 3.49864197 0.30626500
-1.47415805 3.17290306 0.30609101
-0.13308400 3.49610400 0.30609101
-1.45420599 3.17333198 0.30539399
-0.11288100 3.49482107 0.30591699
-1.45861697 3.16253304 0.30469599
-0.12039900 3.48260808 0.30487099
-1.45309305 3.17822409 0.30574200
-0.11178900 3.49884295 0.30626500
-1.45752800 3.17180800 0.30539399
