# .PCD v0.7 - Point Cloud Data file format
VERSION 0.7
FIELDS x y z
SIZE 4 4 4
TYPE F F F
COUNT 1 1 1
WIDTH 1380
HEIGHT 1
VIEWPOINT 0 0 0 1 0 0 0
POINTS 1380
DATA ascii
-0.13265000 3.48469090 0.18275701
-0.12725499 3.34296393 -0.65027702
-0.13263001 3.48415804 0.30504501
-0.12804100 3.36360598 -0.53312898
-0.12927400 3.39601898 -0.41728100
-0.12921900 3.39456606 -0.29720101
-0.13006701 3.41683292 -0.17919800
-0.13060600 3.43099189 -0.05993200
-0.13167100 3.45896697 0.06042000
-0.13226999 3.47471189 0.18223400
-0.12770300 3.35473490 -0.65256703
-0.13308400 3.49610400 0.30609101
-0.12796500 3.36163211 -0.53281599
-0.12912300 3.39205098 -0.41679299
-0.12921900 3.39456606 -0.29720101
-0.12953500 3.40286207 -0.17846601
-0.13106200 3.44298196 -0.06014100
-0.10789200 3.47179508 0.06063000
-0.10807100 3.47754598 0.18233800
-0.10440100 3.35946989 -0.65333003
-0.10492300 3.37626410 -0.53500599
-0.10556300 3.39683795 -0.41728100
-0.10588900 3.40733290 -0.29824701
-0.10614800 3.41566110 -0.17909400
-0.10677400 3.43581700 -0.06000100
-0.10801600 3.47579193 0.06069900
-0.10825700 3.48353505 0.18265200
-0.10421800 3.35358310 -0.65218502
-0.10529100 3.38811111 -0.53688300
-0.10543900 3.39286995 -0.41679299
-0.10588900 3.40733290 -0.29824701
-0.10627200 3.41965389 -0.17930301
-0.10677400 3.43581700 -0.06000100
-0.08089800 3.35815406 -0.65294802
-0.08130200 3.37493992 -0.53469300
-0.08175000 3.39352298 -0.41679299
-0.08157100 3.38608003 -0.29633000
-0.08085100 3.35619092 -0.65256703
0.23860200 3.48202801 -0.80577499
0.23766901 3.46841908 -0.80262500
0.26189399 3.45885706 -0.80082601
0.26277700 3.47051597 -0.80352497
0.28796300 3.48024893 -0.80622500
0.28716001 3.47053909 -0.80397499
0.31007999 3.46074009 -0.80217499
0.31077600 3.46850300 -0.80397499
0.33610800 3.47788811 -0.80667400
0.33517101 3.46818900 -0.80442500
0.35897300 3.46188807 -0.80352497
0.35877201 3.45994997 -0.80307502
0.38313201 3.45929790 -0.80352497
0.38398999 3.46704507 -0.80532497
0.41061699 3.47969103 -0.80892402
0.41038901 3.47775602 -0.80847400
0.43441600 3.47287202 -0.80802399
0.43248099 3.45740294 -0.80442500
0.45881000 3.47563100 -0.80937397
0.46136001 3.49495101 -0.81387299
0.48540699 3.49365902 -0.81432301
0.48540699 3.49365902 -0.81432301
-1.59740698 3.02847004 -0.79047799
-1.59286106 3.01985192 -0.78822899
-1.57532799 3.03781796 -0.79002798
-1.57891703 3.04473805 -0.79182798
-1.55992603 3.05888700 -0.79272699
-1.55815494 3.05541492 -0.79182798
-1.53188705 3.05777502 -0.78957802
-1.59809303 3.24632311 0.96953601
-1.47879303 3.05766797 -0.41703701
-1.44349599 3.03862810 -0.53281599
-1.44804001 3.04819393 -0.41435599
-1.44434404 3.04041290 -0.53312898
-1.46362197 3.08099508 -0.29842100
-1.41820097 3.03857088 -0.65180302
-1.42027402 3.04301310 -0.53187698
-1.43145800 3.06697392 -0.41557401
-1.43503404 3.07463694 -0.29685199
-1.47148502 3.15273499 0.18233800
-1.41903198 3.04034996 -0.65218502
-1.42111003 3.04480290 -0.53219002
-1.43817401 3.08136392 -0.41752401
-1.43587697 3.07644200 -0.29702699
-1.44783294 3.10206008 -0.17940800
-1.45298302 3.11309195 -0.05996600
-1.44121099 3.14497495 0.06038500
-1.44611096 3.15566897 0.18192001
-1.39613497 3.04661298 -0.65142202
-1.45420599 3.17333198 0.30539399
-1.39570403 3.04567099 -0.53062600
-1.40670300 3.06967402 -0.41460001
-1.41187406 3.08095789 -0.29650399
-1.41865301 3.09575105 -0.17846601
-1.43121397 3.12315989 -0.05996600
-1.44037700 3.14315701 0.06035000
-1.44195104 3.14658999 0.18139599
-1.39286399 3.03947401 -0.64989501
-1.45254505 3.16970992 0.30504501
-1.39734900 3.04926300 -0.53125101
-1.39926004 3.05343199 -0.41240600
-1.41104400 3.07914710 -0.29633000
-1.41449296 3.08667302 -0.17794199
-1.42788100 3.11588812 -0.05982700
-1.41620898 3.14973593 0.06028100
-1.42103601 3.16047096 0.18160599
-1.36946797 3.04578209 -0.64913201
-1.42982602 3.18002295 0.30504501
-1.37630403 3.06098509 -0.53156400
-1.37818897 3.06517696 -0.41264999
-1.38733995 3.08553100 -0.29598099
-1.39810205 3.10946608 -0.17867500
-1.40062797 3.11508298 -0.05961700
-1.41620898 3.14973593 0.06028100
-1.42185402 3.16229200 0.18171000
-1.36544299 3.03682899 -0.64722401
-1.42655802 3.17275405 0.30434799
-1.38388705 3.07785106 -0.41435599
-1.37998700 3.06917596 -0.29441199
-1.39892101 3.11128807 -0.17878000
-1.40062797 3.11508298 -0.05961700
-1.38772595 3.14491010 0.06000100
-1.39974296 3.17214203 0.18171000
-1.34658599 3.05167603 -0.64836901
-1.39874303 3.16987610 0.30312800
-1.34533095 3.04883194 -0.52780998
-1.36637294 3.09651804 -0.41557401
-1.36174297 3.08602691 -0.29510900
-1.37474799 3.11549711 -0.17846601
-1.37884605 3.12478495 -0.05961700
-1.38934100 3.14856911 0.06007100
-1.39571095 3.16300607 0.18118700
-1.34975600 3.05886102 -0.64989501
-1.40437305 3.18263602 0.30434799
-1.35091305 3.06148291 -0.52999997
-1.36316705 3.08925295 -0.41460001
-1.36657000 3.09696388 -0.29615501
-1.36587799 3.09539700 -0.17731400
-1.37884605 3.12478495 -0.05961700
-1.36732602 3.15819192 0.06007100
-1.37359500 3.17267299 0.18118700
-1.32758904 3.06640792 -0.64951402
-1.38212001 3.19236302 0.30434799
-1.33186197 3.07627797 -0.53093898
-1.33762395 3.08958602 -0.41338101
-1.34174895 3.09911489 -0.29545799
-1.34740901 3.11218810 -0.17773300
-1.35858703 3.13800597 -0.05968700
-1.37209296 3.16920209 0.06028100
-1.36883402 3.16167498 0.18055899
-1.31978798 3.04839110 -0.64569801
-1.37974501 3.18687797 0.30382499
-1.33052504 3.07319093 -0.41118699
-1.34016597 3.09545803 -0.29510900
-1.34899604 3.11585402 -0.17794199
-1.35381997 3.12699509 -0.05947800
-1.34837103 3.17502308 0.06021100
-1.34985101 3.17850804 0.18097800
-1.29924202 3.05933809 -0.64607900
-1.35123301 3.18176198 0.30243000
-1.30417502 3.07095504 -0.52843601
-1.30981398 3.08423209 -0.41143101
-1.31540799 3.09740400 -0.29441199
-1.32877195 3.12887311 -0.17815199
-1.32882905 3.12900805 -0.05933800
-1.33899105 3.15293598 0.05979200
-1.35297406 3.18586206 0.18139599
-1.30154395 3.06475902 -0.64722401
-1.35279000 3.18542910 0.30277899
-1.30263102 3.06731892 -0.52780998
-1.31524599 3.09702206 -0.41313699
-1.31540799 3.09740400 -0.29441199
-1.32408798 3.11784196 -0.17752400
-1.33195603 3.13636994 -0.05947800
-1.32002199 3.16959095 0.05993200
-1.32762802 3.18785405 0.18097800
-1.27709699 3.06652188 -0.64569801
-1.33128500 3.19663501 0.30295300
-1.28270400 3.07998490 -0.52843601
-1.29588199 3.11162591 -0.41386801
-1.29222000 3.10283303 -0.29406300
-1.30228901 3.12701011 -0.17752400
-1.31156504 3.14928508 -0.05954800
-1.32002199 3.16959095 0.05993200
-1.32148504 3.17310405 0.18014000
-1.27709699 3.06652188 -0.64569801
-1.33205104 3.19847393 0.30312800
-1.28270400 3.07998490 -0.52843601
-1.28824997 3.09330106 -0.41143101
-1.29375196 3.10651112 -0.29441199
-1.29768205 3.11594796 -0.17689601
-1.31156504 3.14928508 -0.05954800
-1.30446601 3.19331193 0.06021100
-1.25248206 3.06605601 -0.64379001
-1.30949497 3.20562291 0.30295300
-1.26469803 3.09595990 -0.52968699
-1.26190996 3.08913493 -0.40972501
-1.27483702 3.12077904 -0.29493499
-1.27946305 3.13210392 -0.17731400
-1.28404796 3.14333010 -0.05926800
-1.29841697 3.17850304 0.05993200
-1.30287695 3.18942189 0.18055899
-1.25322497 3.06787300 -0.64417100
-1.30723500 3.20008898 0.30243000
-1.26171005 3.08864498 -0.52843601
-1.26416194 3.09464788 -0.41045600
-1.26805496 3.10417891 -0.29336599
-1.27946305 3.13210392 -0.17731400
-1.28404796 3.14333010 -0.05926800
-1.27266800 3.18028593 0.05979200
-1.28002203 3.19866300 0.18055899
-1.23634696 3.08952093 -0.64684302
-1.28430402 3.20936108 0.30243000
-1.23664105 3.09025788 -0.52718401
-1.25304902 3.13125896 -0.41411200
-1.24951303 3.12242198 -0.29423800
-1.25850296 3.14488792 -0.17752400
-1.26449597 3.15986300 -0.05940800
-1.27118194 3.17657208 0.05972200
-1.27779603 3.19309902 0.18024500
-1.23634696 3.08952093 -0.64684302
-1.28726399 3.21675992 0.30312800
-1.23664105 3.09025788 -0.52718401
-1.24567401 3.11282897 -0.41167501
-1.24581099 3.11317301 -0.29336599
-1.25256705 3.13005304 -0.17668600
-1.26449597 3.15986300 -0.05940800
-1.25043499 3.18909311 0.05979200
-1.21474802 3.09807801 -0.64684302
-1.26186705 3.21824908 0.30243000
-1.22391200 3.12144995 -0.41167501
-1.22841096 3.13292408 -0.29441199
-1.23068404 3.13872194 -0.17668600
-1.24240506 3.16861391 -0.05940800
-1.25189495 3.19281602 0.05986200
-1.24963999 3.18706703 0.17940800
-1.21044803 3.08711100 -0.64455301
-1.26186705 3.21824908 0.30243000
-1.21143198 3.08962107 -0.52561998
-1.21956396 3.11036110 -0.41021201
-1.22404695 3.12179399 -0.29336599
-1.23068404 3.13872194 -0.17668600
-1.23802495 3.15744400 -0.05919900
-1.22782099 3.19358301 0.05972200
-1.23349202 3.20833397 0.18014000
-1.18994701 3.09507108 -0.64455301
-1.23763502 3.21910906 0.30173299
-1.19233203 3.10127497 -0.52624601
-1.19962096 3.12023401 -0.41045600
-1.20045602 3.12240601 -0.29266900
-1.21414101 3.15799999 -0.17731400
-1.21705699 3.16558599 -0.05919900
-1.22351503 3.18238401 0.05951300
-1.23779297 3.21952009 0.18076800
-1.18994701 3.09507108 -0.64455301
-1.23763502 3.21910906 0.30173299
-1.19020498 3.09574389 -0.52530700
-1.20674503 3.13876295 -0.41289300
-1.20045602 3.12240601 -0.29266900
-1.20984006 3.14681506 -0.17668600
-1.21705699 3.16558599 -0.05919900
-1.20211995 3.19480109 0.05958300
-1.17122495 3.11269403 -0.64646101
-1.21456802 3.22788310 0.30173299
-1.16802204 3.10418105 -0.52530700
-1.18285501 3.14360189 -0.41240600
-1.18018603 3.13650990 -0.29319200
-1.18307102 3.14417601 -0.17605799
-1.19719005 3.18169999 -0.05933800
-1.20564103 3.20415902 0.05975700
-1.20487499 3.20212507 0.17930301
-1.16776800 3.10350704 -0.64455301
-1.21597099 3.23161197 0.30208200
-1.16941297 3.10787892 -0.52593303
-1.17166901 3.11387491 -0.40850601
-1.18229103 3.14210391 -0.29371500
-1.18307102 3.14417601 -0.17605799
-1.19296503 3.17047000 -0.05912900
-1.18130004 3.20895100 0.05968700
-1.18469095 3.21816206 0.17972200
-1.14213896 3.10257196 -0.64264500
-1.19143796 3.23649096 0.30173299
-1.14782596 3.11802101 -0.52624601
-1.14661396 3.11472797 -0.40753099
-1.15840006 3.14674401 -0.29336599
-1.16330099 3.16005802 -0.17647700
-1.16886497 3.17517304 -0.05905900
-1.18268204 3.21270394 0.05975700
-1.18400097 3.21628690 0.17961700
-1.13874805 3.09335995 -0.64073700
-1.18593204 3.22153401 0.30033901
-1.14509702 3.11060596 -0.52499402
-1.15072894 3.12590504 -0.40899399
-1.15427005 3.13552594 -0.29232001
-1.16744101 3.17130399 -0.17710499
-1.17162895 3.18267894 -0.05919900
-1.15456498 3.20166612 0.05940800
-1.16332102 3.22594810 0.17972200
-1.11953902 3.10453796 -0.64150000
-1.16724300 3.23682499 0.30103600
-1.12310100 3.11441588 -0.52436799
-1.12997198 3.13346791 -0.40899399
-1.13277304 3.14123797 -0.29214600
-1.14096200 3.16394711 -0.17626800
-1.14778101 3.18285489 -0.05905900
-1.15456498 3.20166612 0.05940800
-1.16332102 3.22594810 0.17972200
-1.12353504 3.11561894 -0.64379001
-1.16859496 3.24057293 0.30138499
-1.12176096 3.11069894 -0.52374297
-1.12795103 3.12786603 -0.40826201
-1.13209701 3.13936400 -0.29197201
-1.13960695 3.16018891 -0.17605799
-1.15049398 3.19037890 -0.05919900
-1.13372195 3.21758795 0.05954800
-1.13765097 3.22873807 0.17940800
-1.09675097 3.11266088 -0.64150000
-1.14745796 3.25656891 0.30208200
-1.10155404 3.12629104 -0.52499402
-1.11170304 3.15509510 -0.29266900
-1.11641097 3.16845798 -0.17605799
-1.12707698 3.19872689 -0.05919900
-1.13632405 3.22497010 0.17919800
-1.09153199 3.09784794 -0.63844699
-1.14216101 3.24153590 0.30068699
-1.10352302 3.13188100 -0.52593303
-1.11508405 3.16469002 -0.17584901
-1.12309003 3.18741107 -0.05898900
-1.11759996 3.24207091 0.17972200
-1.07425904 3.11634207 -0.64073700
-1.11877096 3.24546790 0.30033901
-1.08024800 3.13371706 -0.52499402
-1.09677100 3.18164802 -0.17637201
-1.10136795 3.19498205 -0.05898900
-1.11759996 3.24207091 0.17972200
-1.07489896 3.11819792 -0.64111799
-1.12006998 3.24923611 0.30068699
-1.07702899 3.12437892 -0.52342999
-1.09807301 3.18542504 -0.17658199
-1.10136795 3.19498205 -0.05898900
-1.09366405 3.24600911 0.17951199
-1.05561101 3.13306904 -0.64264500
-1.09863102 3.26075196 0.30103600
-1.05771399 3.13930988 -0.52468097
-1.06943095 3.17408609 -0.17553499
-1.08414304 3.21775293 -0.05926800
-1.09111297 3.23843789 0.17909400
-1.05184996 3.12190604 -0.64035499
-1.09990299 3.26452804 0.30138499
-1.05771399 3.13930988 -0.52468097
-1.06943095 3.17408609 -0.17553499
-1.08031297 3.20638299 -0.05905900
-1.06785500 3.24407911 0.17898899
-1.02757502 3.12171292 -0.63882899
-1.07334900 3.26077199 0.30033901
-1.03700805 3.15036988 -0.52530700
-1.05224299 3.19665098 -0.17637201
-1.07035196 3.25166702 0.17940800
-1.02880299 3.12544298 -0.63959199
-1.07085800 3.25320196 0.29964101
-1.03453803 3.14286399 -0.52405500
-1.05224299 3.19665098 -0.17637201
-1.04705703 3.25924301 0.17940800
-1.00761199 3.13646293 -0.64035499
-1.04876995 3.26457500 0.29999000
-1.00839603 3.13890290 -0.52217799
-1.02689803 3.19649291 -0.17595300
-1.04888904 3.26494789 0.17972200
-1.01001406 3.14393902 -0.64188099
-1.04998803 3.26836896 0.30033901
-1.00839603 3.13890290 -0.52217799
-1.02384305 3.18698502 -0.17543000
-1.02063096 3.25087190 0.17857000
-0.98619998 3.14120412 -0.63997298
-1.02948201 3.27906299 0.30068699
-0.98755598 3.14552212 -0.52217799
-1.00507700 3.20132804 -0.17584901
-1.02182806 3.25468302 0.17878000
-0.98208398 3.12809205 -0.63730198
-1.02828896 3.27526093 0.30033901
-0.99110597 3.15683007 -0.52405500
-1.00567496 3.20323300 -0.17595300
-1.00025105 3.26555705 0.17898899
-0.96022201 3.13487196 -0.63730198
-1.00306404 3.27473998 0.29964101
-0.96672899 3.15611696 -0.52280402
-0.98504198 3.21590495 -0.17626800
-1.00259101 3.27319598 0.17940800
-0.96137202 3.13862610 -0.63806498
-1.00656497 3.28617001 0.30068699
-0.96325803 3.14478397 -0.52092701
-0.98328799 3.21017599 -0.17595300
-0.97742897 3.27245998 0.17898899
-0.93999797 3.14714193 -0.63844699
-0.98359901 3.29311705 0.30068699
-0.94240999 3.15521789 -0.52155298
-0.95799398 3.20739388 -0.17543000
-0.97399902 3.26097798 0.17836100
-0.94055998 3.14902401 -0.63882899
-0.98473901 3.29693508 0.30103600
-0.94354099 3.15900397 -0.52217799
-0.95913798 3.21122098 -0.17563900
-0.96087998 3.21705389 -0.05860500
-0.95232600 3.27153301 0.17857000
-0.91526097 3.14420295 -0.63653898
-0.96058398 3.29990411 0.30068699
-0.92256802 3.16930699 -0.52280402
-0.93669599 3.21783900 -0.17563900
-0.93895602 3.22560406 -0.05864000
-0.95344198 3.27536893 0.17878000
-0.91580898 3.14608788 -0.63691998
-0.95612901 3.28460002 0.29929301
-0.92146403 3.16551399 -0.52217799
-0.94172001 3.23509789 -0.17658199
-0.94119197 3.23328400 -0.05878000
-0.92946303 3.27810192 0.17857000
-0.89435899 3.15429401 -0.63730198
-0.93426198 3.29502797 0.29964101
-0.89718699 3.16426802 -0.52092701
-0.91080499 3.21229792 -0.40996799
-0.91475302 3.22622204 -0.17574400
-0.91859603 3.23977590 -0.05878000
-0.93382198 3.29347396 0.17940800
-0.89596498 3.15996003 -0.63844699
-0.93643600 3.30269599 0.30033901
-0.89826399 3.16806889 -0.52155298
-0.91197902 3.21643901 -0.29249501
-0.91148400 3.21469212 -0.17511600
-0.92077798 3.24747205 -0.05891900
-0.90712899 3.28659010 0.05951300
-0.90549201 3.28066111 0.17836100
-0.87283802 3.16235304 -0.63768399
-0.91229600 3.30531192 0.29999000
-0.87559998 3.17235899 -0.52124000
-0.88466001 3.20518303 -0.40826201
-0.88950199 3.22272706 -0.29249501
-0.89061302 3.22675300 -0.17543000
-0.89808398 3.25382090 -0.05891900
-0.90549201 3.28066111 0.17836100
-0.87231600 3.16046000 -0.63730198
-0.91441602 3.31299400 0.30068699
-0.87770200 3.17997503 -0.52249098
-0.88413101 3.20326996 -0.40801901
-0.88897198 3.22080708 -0.29232001
-0.89273900 3.23445392 -0.17584901
-0.89382797 3.23839998 -0.05864000
-0.88358903 3.29299688 0.05951300
-0.88303000 3.29091406 0.17857000
-0.84764397 3.15903711 -0.63577598
-0.88655698 3.30405807 0.29929301
-0.85338998 3.18045092 -0.52155298
-0.85964501 3.20376205 -0.40728700
-0.86280501 3.21553898 -0.29127401
-0.86957198 3.24075890 -0.17584901
-0.87374198 3.25630093 -0.05885000
-0.87892503 3.27561498 0.05919900
-0.88406497 3.29477191 0.17878000
-0.84866202 3.16282892 -0.63653898
-0.88603997 3.30213308 0.29911801
-0.85390198 3.18235803 -0.52186501
-0.85758698 3.19609308 -0.40631199
-0.86125600 3.20976591 -0.29075199
-0.86957198 3.24075890 -0.17584901
-0.87166899 3.24857497 -0.05871000
-0.85704499 3.28554106 0.05926800
-0.86003298 3.29699898 0.17857000
-0.82854301 3.17627597 -0.63806498
-0.86648601 3.32173395 0.30033901
-0.83116502 3.18633103 -0.52155298
-0.83525300 3.20200205 -0.40631199
-0.84083802 3.22341204 -0.29144901
-0.84390199 3.23515606 -0.17522100
-0.85199702 3.26619101 -0.05891900
-0.85906398 3.29328108 0.05940800
-0.86003298 3.29699898 0.17857000
-0.82854301 3.17627597 -0.63806498
-0.86648601 3.32173395 0.30033901
-0.83266097 3.19206500 -0.52249098
-0.83324897 3.19431901 -0.40533701
-0.84285003 3.23112297 -0.29214600
-0.84390199 3.23515606 -0.17522100
-0.85098797 3.26232100 -0.05885000
-0.83662701 3.29905200 0.05940800
-0.83658999 3.29890394 0.17836100
-0.80497301 3.17422891 -0.63653898
-0.84287602 3.32369208 0.29999000
-0.81188500 3.20148802 -0.52311701
-0.81197500 3.20184112 -0.40558100
-0.81838799 3.22712898 -0.29127401
-0.82480699 3.25244093 -0.17584901
-0.82581300 3.25640798 -0.05864000
-0.83564401 3.29517508 0.05933800
-0.83658999 3.29890394 0.17836100
-0.80545503 3.17613292 -0.63691998
-0.83993697 3.31210494 0.29894400
-0.81091398 3.19765902 -0.52249098
-0.81490201 3.21338606 -0.40704399
-0.81593901 3.21747303 -0.29040301
-0.82480699 3.25244093 -0.17584901
-0.82679600 3.26028490 -0.05871000
-0.80822098 3.28553605 0.05905900
-0.81630099 3.31838202 0.17909400
-0.78223801 3.17990899 -0.63653898
-0.81716698 3.32189989 0.29929301
-0.78565198 3.19378901 -0.52092701
-0.79046500 3.21335196 -0.40631199
-0.79575002 3.23483801 -0.29144901
-0.79960299 3.25050211 -0.17543000
-0.80631101 3.27776909 -0.05891900
-0.81108701 3.29718709 0.05926800
-0.81296200 3.30480599 0.17836100
-0.78270698 3.18181491 -0.63691998
-0.81906998 3.32963800 0.29999000
-0.78659600 3.19762492 -0.52155298
-0.79093897 3.21528006 -0.40655601
-0.79527402 3.23290300 -0.29127401
-0.79960299 3.25050211 -0.17543000
-0.80631101 3.27776909 -0.05891900
-0.78769600 3.29874110 0.05919900
-0.78998399 3.30832100 0.17825601
-0.76239902 3.19279790 -0.63806498
-0.79546201 3.33126092 0.29964101
-0.76710600 3.21251202 -0.52311701
-0.76442403 3.20128107 -0.40411901
-0.77463800 3.24405503 -0.29179701
-0.77931499 3.26363993 -0.17584901
-0.78212303 3.27540112 -0.05878000
-0.78955400 3.30652094 0.05933800
-0.78859198 3.30249310 0.17794199
-0.75920701 3.17943096 -0.63539398
-0.79731297 3.33901310 0.30033901
-0.76664698 3.21059108 -0.52280402
-0.76719099 3.21286607 -0.40558100
-0.77278697 3.23630404 -0.29110000
-0.77838701 3.25975490 -0.17563900
-0.78119397 3.27151108 -0.05871000
-0.76690203 3.31390095 0.05937300
-0.76821899 3.31959295 0.17857000
-0.73787701 3.18847895 -0.63615698
-0.77128702 3.33285093 0.29929301
-0.74332398 3.21201611 -0.52217799
-0.74563700 3.22201204 -0.40606901
-0.75017500 3.24162006 -0.29110000
-0.75831199 3.27678394 -0.17626800
-0.75833601 3.27688503 -0.05871000
-0.76419699 3.30221200 0.05916400
-0.77002001 3.32737589 0.17898899
-0.73876202 3.19230390 -0.63691998
-0.77308398 3.34061503 0.29999000
-0.74065101 3.20046902 -0.52030098
-0.74698001 3.22781301 -0.40680000
-0.74972498 3.23967910 -0.29092601
-0.75651097 3.26900101 -0.17584901
-0.76013899 3.28467798 -0.05885000
-0.74287301 3.31527209 0.05930300
-0.74589902 3.32877302 0.17878000
-0.71688700 3.19930005 -0.63730198
-0.74974298 3.34593105 0.29999000
-0.72088099 3.21712708 -0.52217799
-0.72269100 3.22520089 -0.40582499
-0.72796100 3.24872208 -0.29127401
-0.73236102 3.26835608 -0.17553499
-0.73806399 3.29380703 -0.05891900
-0.74199897 3.31136894 0.05923300
-0.74458897 3.32292604 0.17846601
-0.71774501 3.20313096 -0.63806498
-0.74974298 3.34593105 0.29999000
-0.72174501 3.22098207 -0.52280402
-0.72052097 3.21551609 -0.40460601
-0.72970402 3.25649905 -0.29197201
-0.73148698 3.26445794 -0.17532501
-0.73893797 3.29770994 -0.05898900
-0.72029001 3.32025099 0.05930300
-0.72237599 3.32986903 0.17857000
-0.69217998 3.19067502 -0.63463098
-0.72779602 3.35485101 0.30033901
-0.69980401 3.22582006 -0.52280402
-0.69903702 3.22228599 -0.40485001
-0.70625299 3.25554895 -0.29144901
-0.71094400 3.27716899 -0.17574400
-0.71477801 3.29484606 -0.05885000
-0.72198600 3.32806802 0.05944300
-0.72449303 3.33962798 0.17909400
-0.69384497 3.19834995 -0.63615698
-0.72610599 3.34706306 0.29964101
-0.69980401 3.22582006 -0.52280402
-0.70198298 3.23586607 -0.40655601
-0.70456398 3.24776101 -0.29075199
-0.71221399 3.28302503 -0.17605799
-0.71477801 3.29484606 -0.05885000
-0.69545299 3.31736994 0.05916400
-0.70116198 3.34460497 0.17909400
-0.67190301 3.20503712 -0.63653898
-0.70354098 3.35595012 0.29999000
-0.67483598 3.21902704 -0.52092701
-0.68100601 3.24845910 -0.40753099
-0.68269199 3.25650001 -0.29110000
-0.68722898 3.27814293 -0.17553499
-0.69094002 3.29584193 -0.05878000
-0.69463199 3.31345606 0.05909400
-0.69993299 3.33874011 0.17878000
-0.67472303 3.21848702 -0.63920999
-0.70354098 3.35595012 0.29999000
-0.67726803 3.23062706 -0.52280402
-0.67774802 3.23291612 -0.40558100
-0.68391800 3.26235008 -0.29162300
-0.68722898 3.27814293 -0.17553499
-0.69340098 3.30758500 -0.05898900
-0.67307001 3.32606506 0.05923300
-0.67502302 3.33571506 0.17836100
-0.64951199 3.20964909 -0.63653898
-0.68167502 3.36859107 0.30068699
-0.65469801 3.23527598 -0.52280402
-0.65476799 3.23562288 -0.40533701
-0.66191697 3.27095103 -0.29197201
-0.66313797 3.27698803 -0.17522100
-0.67108703 3.31626511 -0.05905900
-0.67465597 3.33390403 0.05937300
-0.67502302 3.33571506 0.17836100
-0.64873302 3.20580101 -0.63577598
-0.68167502 3.36859107 0.30068699
-0.65626502 3.24302101 -0.52405500
-0.65555501 3.23951411 -0.40582499
-0.65994102 3.26118708 -0.29110000
-0.66432703 3.28286099 -0.17553499
-0.66791397 3.30058503 -0.05878000
-0.65059900 3.33460808 0.05930300
-0.65439600 3.35406899 0.17909400
-0.62595999 3.20832491 -0.63539398
-0.65585202 3.36153507 0.29964101
-0.63360798 3.24752307 -0.52405500
-0.63520402 3.25570202 -0.40728700
-0.63792002 3.26962590 -0.29144901
-0.64292198 3.29525995 -0.17595300
-0.64485502 3.30516696 -0.05878000
-0.65439600 3.35406899 0.17909400
-0.63009602 3.22952104 -0.63959199
-0.65585202 3.36153507 0.29964101
-0.62944698 3.22619605 -0.52061403
-0.63292301 3.24401212 -0.40582499
-0.63792002 3.26962590 -0.29144901
-0.64292198 3.29525995 -0.17595300
-0.64715201 3.31694388 -0.05898900
-0.63155001 3.35844493 0.17909400
-0.60955000 3.24145293 -0.64111799
-0.63369203 3.36983705 0.29999000
-0.60856801 3.23622990 -0.52155298
-0.61973798 3.29563403 -0.17574400
-0.62603801 3.32913303 -0.05912900
-0.63044298 3.35255599 0.17878000
-0.60773599 3.23180604 -0.63920999
-0.63516498 3.37767005 0.30068699
-0.60929799 3.24011302 -0.52217799
-0.61900002 3.29170799 -0.17553499
-0.62529898 3.32520199 -0.05905900
-0.60572600 3.35305095 0.17857000
-0.58459401 3.23607206 -0.63920999
-0.61097902 3.38212800 0.30068699
-0.58960801 3.26382899 -0.52530700
-0.59614003 3.29998398 -0.17574400
-0.60006601 3.32171988 -0.05891900
-0.60714602 3.36091304 0.17898899
-0.58249998 3.22447991 -0.63691998
-0.60885400 3.37036395 0.29964101
-0.58820301 3.25605297 -0.52405500
-0.59898001 3.31570792 -0.17658199
-0.60184401 3.33155894 -0.05909400
-0.58366799 3.36507010 0.17898899
-0.56131703 3.23620510 -0.63844699
-0.58599001 3.37845898 0.29999000
-0.56410700 3.25229502 -0.52280402
-0.57376999 3.30800200 -0.17595300
-0.58435100 3.36900592 0.17919800
-0.56265903 3.24394298 -0.63997298
-0.58701199 3.38434792 0.30051300
-0.56478298 3.25618792 -0.52342999
-0.57342798 3.30603290 -0.17584901
-0.56166500 3.37083697 0.17909400
-0.54113102 3.24760294 -0.63997298
-0.56619000 3.39799404 0.30138499
-0.54512203 3.27155304 -0.52530700
-0.55083197 3.30582404 -0.17563900
-0.56133699 3.36886692 0.17898899
-0.53919500 3.23598409 -0.63768399
-0.56619000 3.39799404 0.30138499
-0.54512203 3.27155304 -0.52530700
-0.55181700 3.31173396 -0.17595300
-0.53784400 3.37674189 0.17919800
-0.51633400 3.24169803 -0.63806498
-0.53935301 3.38621712 0.29999000
-0.52107602 3.27146792 -0.52468097
-0.53061801 3.33137703 -0.17679100
-0.53910100 3.38463211 0.17961700
-0.51849598 3.25527000 -0.64073700
-0.54123402 3.39802289 0.30103600
-0.52045500 3.26756692 -0.52405500
-0.52904701 3.32151508 -0.17626800
-0.51485699 3.38436389 0.17940800
-0.49634799 3.26269197 -0.64150000
-0.51869601 3.40959692 0.30173299
-0.49822399 3.27502704 -0.52468097
-0.50404400 3.31328011 -0.17563900
-0.51425701 3.38041496 0.17919800
-0.49575701 3.25881004 -0.64073700
-0.51809698 3.40565801 0.30138499
-0.50000697 3.28674412 -0.52655798
-0.50584602 3.32512808 -0.17626800
-0.49121901 3.38787603 0.17940800
-0.47243300 3.25830603 -0.63997298
-0.49373800 3.40524793 0.30103600
-0.47733399 3.29210901 -0.52687103
-0.48233500 3.32660103 -0.17616300
-0.49179199 3.39182901 0.17961700
-0.47130600 3.25053406 -0.63844699
-0.49316600 3.40130496 0.30068699
-0.47705001 3.29015398 -0.52655798
-0.48434100 3.34043789 -0.17689601
-0.46924001 3.39905500 0.17982601
-0.45185399 3.27311492 -0.64226300
-0.47000301 3.40458298 0.30068699
-0.45356300 3.28549790 -0.52530700
-0.46050000 3.33574295 -0.17647700
-0.46434301 3.36358309 -0.05926800
-0.46978599 3.40301204 0.18003599
-0.45346501 3.28478408 -0.64455301
-0.47027501 3.40655589 0.30086201
-0.45329300 3.28354096 -0.52499402
-0.45967999 3.32980704 -0.17616300
-0.46406901 3.36160207 -0.05923300
-0.44394299 3.39036608 0.17919800
-0.43077600 3.28981590 -0.64493400
-0.44881001 3.42753601 0.30243000
-0.43035901 3.28662610 -0.52499402
-0.43642300 3.33293509 -0.17616300
-0.43955100 3.35682797 -0.05909400
-0.44498000 3.39828706 0.17961700
-0.42950201 3.28008294 -0.64302599
-0.44829199 3.42358494 0.30208200
-0.43189701 3.29837799 -0.52687103
-0.43170199 3.29688501 -0.40826201
-0.43742800 3.34061289 -0.29476100
-0.43720001 3.33887601 -0.17647700
-0.44007000 3.36079407 -0.05916400
-0.42114100 3.40534902 0.17982601
-0.40722400 3.29281497 -0.64493400
-0.42231500 3.41484094 0.30103600
-0.40755600 3.29550195 -0.52593303
-0.41378701 3.34588408 -0.17668600
-0.41527399 3.35790300 -0.05905900
-0.42091900 3.40354896 0.05986200
-0.42261201 3.41724110 0.18045400
-0.40626001 3.28502107 -0.64340800
-0.42378199 3.42670608 0.30208200
-0.40731400 3.29354191 -0.52561998
-0.41224101 3.33338189 -0.41240600
-0.41155601 3.32783890 -0.29336599
-0.41378701 3.34588408 -0.17668600
-0.41674599 3.36981106 -0.05926800
-0.39575800 3.39448690 0.05965200
-0.39828199 3.41614103 0.18024500
-0.38422599 3.29557705 -0.64493400
-0.40077201 3.43749595 0.30277899
-0.38431099 3.29630494 -0.52561998
-0.38804001 3.32829094 -0.41143101
-0.38831300 3.33063102 -0.29336599
-0.39041799 3.34869099 -0.17668600
-0.39413700 3.38058305 -0.05940800
-0.39575800 3.39448690 0.05965200
-0.39805099 3.41415691 0.18014000
-0.38422599 3.29557705 -0.64493400
-0.40077201 3.43749595 0.30277899
-0.38476801 3.30023003 -0.52624601
-0.38780999 3.32631993 -0.41118699
-0.38923600 3.33854699 -0.29406300
-0.38995600 3.34472299 -0.17647700
-0.39413700 3.38058305 -0.05940800
-0.37379199 3.41306901 0.05993200
-0.37333599 3.40891099 0.17972200
-0.36078200 3.29427600 -0.64417100
-0.37763199 3.44813299 0.30347601
-0.36257899 3.31068993 -0.52749699
-0.36436301 3.32697296 -0.41094300
-0.36548501 3.33722210 -0.29371500
-0.36746600 3.35530591 -0.17689601
-0.36921999 3.37132502 -0.05919900
-0.37335601 3.40909410 0.05986200
-0.37377101 3.41288209 0.17993100
-0.36120901 3.29818010 -0.64493400
-0.37546301 3.42832708 0.30173299
-0.36214900 3.30676293 -0.52687103
-0.36457899 3.32894611 -0.41118699
-0.36461699 3.32929993 -0.29301801
-0.36790001 3.35927701 -0.17710499
-0.36965501 3.37530088 -0.05926800
-0.34852800 3.40167093 0.05968700
-0.35156399 3.43130302 0.18076800
-0.33817500 3.30062103 -0.64493400
-0.35233200 3.43879294 0.30243000
-0.33804801 3.29938507 -0.52530700
-0.34213901 3.33930898 -0.41216201
-0.34197500 3.33771110 -0.29354101
-0.34443900 3.36176300 -0.17710499
-0.34730500 3.38973498 -0.05947800
-0.34975100 3.41360688 0.05989700
-0.35176799 3.43329000 0.18087301
-0.33837500 3.30257392 -0.64531600
-0.35273799 3.44275689 0.30277899
-0.33905500 3.30921006 -0.52687103
-0.34153199 3.33338499 -0.41143101
-0.34299001 3.34762001 -0.29441199
-0.34362501 3.35381603 -0.17668600
-0.34771299 3.39371395 -0.05954800
-0.32572100 3.41397500 0.05986200
-0.32589301 3.41578007 0.17982601
-0.31512401 3.30290103 -0.64493400
-0.32982999 3.45703602 0.30382499
-0.31575599 3.30953002 -0.52655798
-0.31730899 3.32580805 -0.41021201
-0.31999001 3.35389996 -0.29476100
-0.32096100 3.36408591 -0.17710499
-0.32325199 3.38809609 -0.05940800
-0.32686099 3.42591810 0.06007100
-0.32703099 3.42770910 0.18045400
-0.31475100 3.29899192 -0.64417100
-0.32945099 3.45306897 0.30347601
-0.31744501 3.32722807 -0.52937400
-0.31768599 3.32976007 -0.41069999
-0.31904301 3.34398293 -0.29388899
-0.32134101 3.36806202 -0.17731400
-0.32325199 3.38809609 -0.05940800
-0.30240899 3.42214108 0.05996600
-0.29102200 3.29328704 -0.64264500
-0.30481201 3.44933105 0.30295300
-0.29438400 3.33133101 -0.52968699
-0.29530799 3.34178400 -0.41191801
-0.29656899 3.35605192 -0.29476100
-0.29887599 3.38216090 -0.17794199
-0.30029699 3.39823794 -0.05954800
-0.30240899 3.42214108 0.05996600
-0.30432600 3.44383502 0.18118700
-0.29188600 3.30306506 -0.64455301
-0.30481201 3.44933105 0.30295300
-0.29386199 3.32542801 -0.52874899
-0.29688001 3.35958004 -0.41411200
-0.29569200 3.34612894 -0.29388899
-0.29852399 3.37818098 -0.17773300
-0.30012101 3.39624596 -0.05951300
-0.27845800 3.41614795 0.05982700
-0.27019399 3.31475902 -0.64646101
-0.28164899 3.45529795 0.30330199
-0.27105999 3.32538199 -0.52843601
-0.27287701 3.34767294 -0.41240600
-0.27388000 3.35997891 -0.29493499
-0.27487400 3.37217307 -0.17731400
-0.27732101 3.40219593 -0.05958300
-0.27943301 3.42810607 0.06003600
-0.28039101 3.43985510 0.18087301
-0.27019399 3.31475902 -0.64646101
-0.28245899 3.46522689 0.30417401
-0.27154100 3.33128905 -0.52937400
-0.27206999 3.33778000 -0.41118699
-0.27420300 3.36395097 -0.29528400
-0.27584699 3.38411689 -0.17794199
-0.27732101 3.40219593 -0.05958300
-0.25548801 3.43799496 0.06017600
-0.25562000 3.43978190 0.18076800
-0.24603000 3.31073403 -0.64531600
-0.25780299 3.46914601 0.30434799
-0.24813500 3.33905602 -0.53031301
-0.24935600 3.35547900 -0.41313699
-0.24953400 3.35787892 -0.29458600
-0.25132799 3.38202000 -0.17773300
-0.25237501 3.39611697 -0.05944300
-0.25519100 3.43400693 0.06010600
-0.25650799 3.45173192 0.18139599
-0.24646699 3.31660795 -0.64646101
-0.25721201 3.46119809 0.30365101
-0.24842800 3.34299588 -0.53093898
-0.24950300 3.35745907 -0.41338101
-0.24982899 3.36185288 -0.29493499
-0.25192001 3.38998699 -0.17815199
-0.25267199 3.40010500 -0.05951300
-0.23107700 3.43370891 0.06007100
-0.23280700 3.45941710 0.18171000
-0.22330700 3.31824803 -0.64646101
-0.23304200 3.46290994 0.30365101
-0.22428800 3.33282399 -0.52906102
-0.22632401 3.36308002 -0.41386801
-0.22635300 3.36351490 -0.29493499
-0.22797900 3.38767791 -0.17794199
-0.22919700 3.40577698 -0.05958300
-0.23121101 3.43570399 0.06010600
-0.23307499 3.46340299 0.18192001
-0.22409800 3.33000112 -0.64875102
-0.23330900 3.46688509 0.30399901
-0.22468500 3.33873606 -0.52999997
-0.22619000 3.36109900 -0.41362500
-0.22688800 3.37146711 -0.29563200
-0.22771101 3.38369298 -0.17773300
-0.23000300 3.41774797 -0.05979200
-0.20866200 3.44115400 0.06017600
-0.20961601 3.45689797 0.18150100
-0.20200700 3.33141398 -0.64875102
-0.21139599 3.48625493 0.30556801
-0.20277600 3.34409690 -0.53062600
-0.20377401 3.36054397 -0.41338101
-0.20524600 3.38483000 -0.29667801
-0.20574801 3.39310288 -0.17815199
-0.20708799 3.41520596 -0.05972200
-0.20878300 3.44315004 0.06021100
-0.20973700 3.45889091 0.18160599
-0.20200700 3.33141398 -0.64875102
-0.21127599 3.48426700 0.30539399
-0.20397200 3.36381412 -0.53375399
-0.20449400 3.37243295 -0.41484299
-0.20452300 3.37289691 -0.29563200
-0.20599000 3.39708996 -0.17836100
-0.20660400 3.40722203 -0.05958300
-0.18375000 3.44858193 0.06028100
-0.17737199 3.32888389 -0.64798701
-0.18477499 3.46781611 0.30382499
-0.17836200 3.34746599 -0.53093898
-0.17987300 3.37582302 -0.41508701
-0.18000500 3.37828493 -0.29598099
-0.18150701 3.40648603 -0.17878000
-0.18226101 3.42062593 -0.05979200
-0.18332499 3.44059491 0.06014100
-0.18480200 3.46831393 0.18202400
-0.17737199 3.32888389 -0.64798701
-0.18594100 3.48970103 0.30574200
-0.17846800 3.34943795 -0.53125101
-0.18050700 3.38771701 -0.41654900
-0.18000500 3.37828493 -0.29598099
-0.18150701 3.40648603 -0.17878000
-0.18226101 3.42062593 -0.05979200
-0.16004001 3.45777106 0.06042000
-0.16123000 3.48348498 0.18275701
-0.15458199 3.33984709 -0.64989501
-0.16129801 3.48494291 0.30521899
-0.15508001 3.35060310 -0.53125101
-0.15648501 3.38096309 -0.41557401
-0.15660000 3.38344002 -0.29633000
-0.15735200 3.39968991 -0.17836100
-0.15856101 3.42581010 -0.05986200
-0.16004001 3.45777106 0.06042000
-0.16058400 3.46951890 0.18202400
-0.15476300 3.34376907 -0.65065902
-0.16175801 3.49489498 0.30609101
-0.15584201 3.36708212 -0.41386801
-0.15733700 3.39936209 -0.29772401
-0.15772100 3.40767002 -0.17878000
-0.15856101 3.42581010 -0.05986200
-0.13726200 3.46275306 0.06049000
-0.13242801 3.34079909 -0.64989501
-0.13410600 3.38313890 -0.53625703
-0.13460800 3.39581108 -0.41728100
-0.13447200 3.39236689 -0.29702699
-0.13527501 3.41263294 -0.17898899
-0.13599500 3.43078303 -0.05993200
-0.13710301 3.45875597 0.06042000
-0.13812301 3.48447800 0.18275701
-0.13242801 3.34079909 -0.64989501
-0.13818100 3.48593593 0.30521899
-0.13363700 3.37129593 -0.53438002
-0.13437299 3.38986111 -0.41654900
-0.13447200 3.39236689 -0.29702699
-0.13543300 3.41662502 -0.17919800
-0.13583601 3.42678690 -0.05986200
-0.11187500 3.46366596 0.06049000
-0.11270600 3.48938894 0.18296701
-0.10831500 3.35345292 -0.65218502
-0.11288100 3.49482107 0.30591699
-0.10866500 3.36428690 -0.53312898
-0.10964800 3.39472198 -0.41703701
-0.10953700 3.39126992 -0.29685199
-0.11025600 3.41353297 -0.17898899
-0.11097100 3.43568492 -0.06000100
-0.11187500 3.46366596 0.06049000
-0.11283500 3.49338198 0.18317600
-0.10844200 3.35737705 -0.65294802
-0.10872900 3.36626196 -0.53344202
-0.10964800 3.39472198 -0.41703701
-0.10985800 3.40122700 -0.29772401
-0.11006200 3.40754390 -0.17867500
-0.11148800 3.45167398 -0.06028100
-0.08814800 3.48235393 0.06080400
-0.08495200 3.35609007 -0.65256703
-0.08547700 3.37681293 -0.53500599
-0.08604800 3.39937401 -0.41752401
-0.08656600 3.41983700 -0.29929301
-0.08677800 3.42819595 -0.17972200
-0.08809800 3.48035502 -0.06076900
-0.08490300 3.35412693 -0.65218502
-0.08512700 3.36298895 -0.53281599
0.12870599 3.46051788 -0.79947603
0.15294801 3.46148300 -0.79992598
0.15312000 3.46537590 -0.80082601
0.17770700 3.47200799 -0.80262500
0.17780700 3.47395396 -0.80307502
0.20160200 3.46484590 -0.80127603
0.20137601 3.46095490 -0.80037600
0.22629300 3.47113299 -0.80307502
0.22705400 3.48280001 -0.80577499
0.25122201 3.47918701 -0.80532497
0.24967800 3.45780611 -0.80037600
0.27427399 3.46180701 -0.80172598
0.27489001 3.46957707 -0.80352497
0.29944000 3.47145700 -0.80442500
0.29960701 3.47339797 -0.80487502
0.32276300 3.45957994 -0.80217499
0.32384899 3.47122192 -0.80487502
0.34710199 3.45918202 -0.80262500
0.34749100 3.46305895 -0.80352497
0.37145099 3.45861197 -0.80307502
0.37228301 3.46636200 -0.80487502
0.39498401 3.45600295 -0.80307502
0.39675400 3.47149205 -0.80667400
0.42346600 3.48404002 -0.81027400
0.42252600 3.47630191 -0.80847400
0.44568199 3.46948004 -0.80757397
0.44468799 3.46174908 -0.80577499
0.47364199 3.48937392 -0.81297302
0.47416699 3.49323702 -0.81387299
0.49793300 3.48992801 -0.81387299
0.49628201 3.47835302 -0.81117302
-1.58327603 3.03368402 -0.79002798
-1.58057106 3.02850103 -0.78867799
-1.55938900 3.03946209 -0.78867799
-1.56383705 3.04813099 -0.79092801
-1.54427397 3.06245399 -0.79182798
-1.54251897 3.05897498 -0.79092801
-1.51853096 3.06443000 -0.78957802
-1.49895895 3.07877302 -0.42044899
-1.45656097 3.04553103 -0.53469300
-1.47914100 3.09274507 -0.42093700
-1.44677496 3.02506995 -0.65180302
-1.46115506 3.05513692 -0.41581801
-1.43396795 3.05286694 -0.65561998
-1.42938495 3.04310989 -0.53250301
-1.44147897 3.06885695 -0.41630599
-1.46474898 3.11839890 -0.18055899
-1.48353899 3.15840197 -0.06090900
-1.48013794 3.15116191 0.06076900
-1.42228198 3.02798891 -0.65027702
-1.43022501 3.04489803 -0.53281599
-1.43641496 3.05807710 -0.41484299
-1.44508302 3.07653093 -0.29737499
-1.45625806 3.10032105 -0.17951199
-1.45973396 3.10772300 -0.05993200
-1.45056498 3.14507604 0.06045500
-1.45465302 3.15393901 0.18202400
-1.40110803 3.03784394 -0.65027702
-1.45861697 3.16253304 0.30469599
-1.40645003 3.04942703 -0.53187698
-1.41752505 3.07343793 -0.41557401
-1.41439104 3.06664395 -0.29545799
-1.43374097 3.10859799 -0.17940800
-1.43465304 3.11057401 -0.05979200
-1.44888997 3.14144397 0.06038500
-1.45799899 3.16119409 0.18244299
-1.40110803 3.03784394 -0.65027702
-1.45861697 3.16253304 0.30469599
-1.40314102 3.04225206 -0.53062600
-1.41419899 3.06622791 -0.41460001
-1.41439104 3.06664395 -0.29545799
-1.42788601 3.09590292 -0.17867500
-1.43130302 3.10331106 -0.05965200
-1.42527401 3.14783907 0.06031600
-1.43095195 3.16037893 0.18181500
-1.38310504 3.05470610 -0.65180302
-1.43814600 3.17626905 0.30504501
-1.37860894 3.04477501 -0.52937400
-1.39705598 3.08551788 -0.29633000
-1.40129495 3.09487891 -0.17804700
-1.41702604 3.12962294 -0.05996600
-1.42279994 3.14237404 0.06021100
-1.42765701 3.15310097 0.18139599
-1.38067603 3.04934096 -0.65065902
-1.43732405 3.17445397 0.30487099
-1.38349700 3.05557203 -0.53125101
-1.38620806 3.06155896 -0.41264999
-1.40034401 3.09277797 -0.29702699
-1.40129495 3.09487891 -0.17804700
-1.40877795 3.11140609 -0.05961700
-1.40407503 3.15953994 0.06035000
-1.41047502 3.17394209 0.18202400
-1.35616505 3.05172896 -0.64913201
-1.41270006 3.17894912 0.30434799
-1.36133003 3.06335211 -0.53093898
-1.36399496 3.06934810 -0.41240600
-1.37386298 3.09155512 -0.29598099
-1.38452101 3.11553788 -0.17867500
-1.38702202 3.12116504 -0.05961700
-1.40245104 3.15588498 0.06028100
-1.40398705 3.15934110 0.18118700
-1.35377300 3.04634690 -0.64798701
-1.40784597 3.16802502 0.30330199
-1.35651600 3.05252099 -0.52906102
-1.37366796 3.09111595 -0.41533101
-1.36900902 3.08063102 -0.29493499
-1.38208795 3.11006188 -0.17836100
-1.38458598 3.11568308 -0.05951300
-1.37399006 3.15093493 0.06000100
-1.38429105 3.17455792 0.18150100
-1.33561099 3.06292200 -0.64951402
-1.38569403 3.17777610 0.30330199
-1.34808695 3.09153295 -0.41411200
-1.34906101 3.09376597 -0.29528400
-1.35874498 3.11597300 -0.17815199
-1.36679697 3.13443899 -0.05968700
-1.37399006 3.15093493 0.06000100
-1.38269401 3.17089701 0.18129200
-1.33168805 3.05392408 -0.64760602
-1.38728702 3.18142796 0.30365101
-1.33517301 3.06191611 -0.52906102
-1.34650004 3.08789396 -0.41362500
-1.35065401 3.09741807 -0.29563200
-1.35395503 3.10498905 -0.17752400
-1.36679697 3.13443899 -0.05968700
-1.35195899 3.16045094 0.06000100
-1.35659599 3.17129111 0.18076800
-1.31110704 3.06495094 -0.64798701
-1.36896098 3.20019507 0.30452201
-1.32491004 3.09721899 -0.41362500
-1.33056402 3.11043596 -0.29598099
-1.33381605 3.11803794 -0.17773300
-1.34488106 3.14390397 -0.05968700
-1.35353196 3.16412807 0.06007100
-1.35502505 3.16761804 0.18055899
-1.30801797 3.05773091 -0.64646101
-1.36582601 3.19286799 0.30382499
-1.31376398 3.07116294 -0.52906102
-1.31475997 3.07349205 -0.41045600
-1.32586205 3.09944510 -0.29493499
-1.33538699 3.12171102 -0.17794199
-1.33701599 3.12551904 -0.05933800
-1.32875705 3.17027593 0.06000100
-1.33717501 3.19035912 0.18129200
-1.28708804 3.07085800 -0.64722401
-1.33853602 3.19360590 0.30295300
-1.29274499 3.08435392 -0.52968699
-1.29987001 3.10135508 -0.41289300
-1.30233800 3.10724306 -0.29476100
-1.31246901 3.13141489 -0.17794199
-1.31716204 3.14261198 -0.05947800
-1.32566500 3.16289902 0.05986200
-1.33717501 3.19035912 0.18129200
-1.28481102 3.06542611 -0.64607900
-1.33622503 3.18809295 0.30243000
-1.28969002 3.07706690 -0.52843601
-1.30063796 3.10318589 -0.41313699
-1.29848695 3.09805489 -0.29388899
-1.31092501 3.12773108 -0.17773300
-1.31716204 3.14261198 -0.05947800
-1.30389798 3.16977191 0.05982700
-1.26594603 3.07751107 -0.64684302
-1.31732500 3.20241308 0.30295300
-1.26775098 3.08189893 -0.52780998
-1.27776206 3.10623598 -0.41240600
-1.28245902 3.11765409 -0.29493499
-1.28559399 3.12527394 -0.17710499
-1.29781199 3.15497708 -0.05954800
-1.30694103 3.17716908 0.05996600
-1.30762804 3.17883992 0.18014000
-1.26519895 3.07569599 -0.64646101
-1.31959903 3.20794106 0.30347601
-1.26925397 3.08555198 -0.52843601
-1.27323103 3.09522104 -0.41094300
-1.28245902 3.11765409 -0.29493499
-1.28407395 3.12157989 -0.17689601
-1.29476905 3.14757991 -0.05940800
-1.28323305 3.18250704 0.05989700
-1.28689802 3.19159603 0.18035001
-1.23855698 3.07170796 -0.64379001
-1.29419100 3.20968390 0.30277899
-1.24915898 3.09800196 -0.52906102
-1.25010705 3.10035205 -0.41045600
-1.25768197 3.11913991 -0.29423800
-1.26523805 3.13787794 -0.17731400
-1.26977205 3.14912391 -0.05926800
-1.28248501 3.18065190 0.05986200
-1.28988504 3.19900489 0.18076800
-1.24075902 3.07716990 -0.64493400
-1.29270101 3.20598793 0.30243000
-1.24620402 3.09067392 -0.52780998
-1.25381899 3.10955691 -0.41167501
-1.25172198 3.10435700 -0.29284301
-1.26523805 3.13787794 -0.17731400
-1.26977205 3.14912391 -0.05926800
-1.25730896 3.18208909 0.05972200
-1.26605296 3.20421696 0.18055899
-1.21924698 3.08575702 -0.64493400
-1.26882303 3.21122909 0.30208200
-1.21733797 3.08092809 -0.52468097
-1.23134995 3.11638904 -0.41143101
-1.23148298 3.11672711 -0.29319200
-1.24329996 3.14663410 -0.17731400
-1.24922597 3.16163206 -0.05933800
-1.25730896 3.18208909 0.05972200
-1.21996796 3.08758307 -0.64531600
-1.27028704 3.21493506 0.30243000
-1.22169399 3.09194994 -0.52655798
-1.23499703 3.12561989 -0.41264999
-1.23367906 3.12228489 -0.29371500
-1.23889697 3.13548899 -0.17668600
-1.24922597 3.16163206 -0.05933800
-1.23506296 3.19078898 0.05972200
-1.24004698 3.20366502 0.18003599
-1.19696498 3.09236312 -0.64455301
-1.25068903 3.23115706 0.30312800
-1.20150399 3.10408807 -0.52718401
-1.20956302 3.12490892 -0.41143101
-1.21328998 3.13453794 -0.29406300
-1.21697700 3.14406204 -0.17668600
-1.22712302 3.17027593 -0.05933800
-1.23867297 3.20011401 0.05989700
-1.24293101 3.21111488 0.18045400
-1.19625700 3.09053206 -0.64417100
-1.24781203 3.22372508 0.30243000
-1.20007801 3.10040402 -0.52655798
-1.20884705 3.12305808 -0.41118699
-1.21257102 3.13267994 -0.29388899
-1.21697700 3.14406204 -0.17668600
-1.22279203 3.15908599 -0.05912900
-1.21204901 3.19746399 0.05968700
-1.22048295 3.21971393 0.18045400
-1.17465198 3.09880805 -0.64417100
-1.22103798 3.22117901 0.30138499
-1.17840397 3.10870600 -0.52655798
-1.18912494 3.13699007 -0.41191801
-1.18502200 3.12616491 -0.29249501
-1.19641304 3.15621710 -0.17689601
-1.19929004 3.16380596 -0.05905900
-1.20921302 3.18998408 0.05954800
-1.22119105 3.22158194 0.18055899
-1.17465198 3.09880805 -0.64417100
-1.21962595 3.21745300 0.30103600
-1.17490304 3.09947109 -0.52499402
-1.18490303 3.12585306 -0.41045600
-1.18502200 3.12616491 -0.29249501
-1.19570506 3.15434909 -0.17679100
-1.20070803 3.16754603 -0.05912900
-1.18705106 3.20043111 0.05958300
-1.19393897 3.21900296 0.17993100
-1.15381300 3.11081600 -0.64493400
-1.19934201 3.23357105 0.30173299
-1.15338004 3.10965109 -0.52530700
-1.15974295 3.12680697 -0.40948099
-1.16608500 3.14390492 -0.29336599
-1.16685200 3.14597106 -0.17584901
-1.18079197 3.18355703 -0.05926800
-1.18844199 3.20418000 0.05965200
-1.19393897 3.21900296 0.17993100
-1.14835095 3.09609008 -0.64188099
-1.20072806 3.23730707 0.30208200
-1.15269303 3.10779905 -0.52499402
-1.15767300 3.12122297 -0.40875000
-1.16747105 3.14764094 -0.29371500
-1.16824102 3.14971709 -0.17605799
-1.17940104 3.17980695 -0.05919900
-1.16796899 3.21595502 0.05972200
-1.16927302 3.21954608 0.17951199
-1.12255800 3.09091806 -0.63920999
-1.17730498 3.24165893 0.30173299
-1.13286102 3.11928701 -0.52561998
-1.13436699 3.12343311 -0.40801901
-1.14193797 3.14427900 -0.29266900
-1.14813805 3.16135001 -0.17626800
-1.15363395 3.17648411 -0.05898900
-1.16387296 3.20467710 0.05951300
-1.17200100 3.22705507 0.17993100
-1.12389898 3.09460902 -0.63997298
-1.17186403 3.22667789 0.30033901
-1.13016403 3.11186004 -0.52436799
-1.14114404 3.14209199 -0.41045600
-1.13921702 3.13678694 -0.29197201
-1.15154696 3.17073607 -0.17679100
-1.15636504 3.18400192 -0.05912900
-1.13689804 3.20161700 0.05930300
-1.14954805 3.23724103 0.18003599
-1.10172701 3.10257101 -0.63997298
-1.14874601 3.23498011 0.30033901
-1.10654700 3.11614394 -0.52374297
-1.11663902 3.14456511 -0.40972501
-1.11807704 3.14861393 -0.29232001
-1.12615597 3.17136598 -0.17637201
-1.13355196 3.19219494 -0.05912900
-1.14420104 3.22218299 0.17919800
-1.10566902 3.11367202 -0.64226300
-1.15141201 3.24249005 0.30103600
-1.10720801 3.11800504 -0.52405500
-1.11674297 3.14485908 -0.29197201
-1.12481904 3.16760206 -0.17616300
-1.13489103 3.19596291 -0.05919900
-1.12224197 3.22989702 0.17919800
-1.08380401 3.11927104 -0.64188099
-1.13192999 3.25778103 0.30173299
-1.08595800 3.12546992 -0.52405500
-1.10323203 3.17518497 -0.17616300
-1.11179698 3.19983697 -0.05912900
-1.12224197 3.22989702 0.17919800
-1.07929397 3.10629010 -0.63920999
-1.12800705 3.24648905 0.30068699
-1.08920002 3.13479900 -0.52561998
-1.10323203 3.17518497 -0.17616300
-1.10917199 3.19228101 -0.05898900
-1.10095000 3.24143600 0.17940800
-1.05947602 3.11932492 -0.64035499
-1.10403299 3.25051093 0.30033901
-1.06411195 3.13297510 -0.52405500
-1.08360803 3.19037509 -0.17658199
-1.08814502 3.20373297 -0.05905900
-1.10223496 3.24521804 0.17961700
-1.06010699 3.12118506 -0.64073700
-1.10275102 3.24673796 0.29999000
-1.06284106 3.12923408 -0.52342999
-1.08103800 3.18281007 -0.17616300
-1.08750200 3.20183992 -0.05902400
-1.07841694 3.25321007 0.17961700
-1.03658199 3.12700796 -0.64035499
-1.08268404 3.26608205 0.30103600
-1.04111695 3.14069104 -0.52405500
-1.05516398 3.18306494 -0.17574400
-1.07338905 3.23804402 0.17878000
-1.03658199 3.12700796 -0.64035499
-1.08393705 3.26986408 0.30138499
-1.04111695 3.14069104 -0.52405500
-1.05516398 3.18306494 -0.17574400
-1.05312204 3.24889207 0.17898899
-1.01460898 3.13007903 -0.63959199
-1.05976999 3.26939988 0.30068699
-1.02270103 3.15504289 -0.52530700
-1.03402996 3.18999410 -0.17574400
-1.05866504 3.26599097 0.17993100
-1.01339805 3.12634397 -0.63882899
-1.05854106 3.26560903 0.30033901
-1.02026498 3.14752698 -0.52405500
-1.03649402 3.19759297 -0.17616300
-1.03282499 3.26378202 0.17940800
-0.99273199 3.13708591 -0.63959199
-1.03571701 3.27291989 0.30033901
-0.99469000 3.14327312 -0.52217799
-1.01233697 3.19903898 -0.17584901
-1.03041506 3.25616503 0.17898899
-0.99273199 3.13708591 -0.63959199
-1.03691900 3.27671909 0.30068699
-0.99469000 3.14327312 -0.52217799
-1.01052999 3.19332600 -0.17553499
-1.00883603 3.26709604 0.17919800
-0.97196501 3.14769197 -0.64035499
-1.01519406 3.28768492 0.30103600
-0.97505301 3.15769100 -0.52342999
-0.98821098 3.20030403 -0.17553499
-1.00530005 3.25564599 0.17857000
-0.96906900 3.13831306 -0.63844699
-1.01166701 3.27626300 0.29999000
-0.97738397 3.16524100 -0.52468097
-0.98997903 3.20602798 -0.17584901
-0.98427999 3.27040601 0.17898899
-0.94375801 3.13576698 -0.63653898
-0.98934501 3.28723407 0.30033901
-0.95015502 3.15702105 -0.52217799
-0.96758699 3.21494293 -0.17595300
-0.98543102 3.27423096 0.17919800
-0.94489002 3.13952708 -0.63730198
-0.98819602 3.28341794 0.29999000
-0.94787800 3.14945412 -0.52092701
-0.96701199 3.21303010 -0.17584901
-0.97798902 3.24950194 -0.05923300
-0.96368402 3.28277898 0.17930301
-0.92405099 3.14776993 -0.63768399
-0.96470100 3.28624606 0.29964101
-0.92753100 3.15962410 -0.52155298
-0.94286901 3.21187305 -0.17543000
-0.95021498 3.23689699 -0.05888400
-0.95974600 3.26936507 0.17857000
-0.92515701 3.15153694 -0.63844699
-0.96919101 3.30153894 0.30103600
-0.92753100 3.15962410 -0.52155298
-0.94511902 3.21953797 -0.17584901
-0.95021498 3.23689699 -0.05888400
-0.93580103 3.27214408 0.17836100
