0.583764 -0.880635 -0.055371 3 12
0.422073 -0.636716 0.176362 5 13
0.506030 -0.763370 -0.015986 3 14
0.541164 -0.816371 0.262443 22 15
0.500689 -0.766884 0.015986 3 1
0.457496 -0.700727 0.043858 3 3
0.450934 -0.690677 0.072165 4 5
0.424322 -0.649917 0.095302 3 7
0.424406 -0.650044 0.122957 5 9
0.446487 -0.683865 0.158753 6 11
0.619093 -0.948239 -0.059349 3 12
0.432532 -0.662492 0.182660 5 13
0.500689 -0.766884 -0.015986 3 14
0.533339 -0.816894 0.261407 23 15
0.501782 -0.768558 0.016021 3 1
0.460771 -0.705744 0.044172 3 3
0.432418 -0.662316 0.069202 4 5
0.434089 -0.664877 0.097495 3 7
0.416846 -0.638466 0.120767 5 9
0.441120 -0.675645 0.156845 6 11
0.638747 -0.978342 -0.061233 3 12
0.449578 -0.688600 0.189859 5 13
0.502875 -0.770233 -0.016056 3 14
0.533339 -0.816894 0.261407 27 15
0.485589 -0.755223 0.015672 3 1
0.450432 -0.700544 0.043648 3 3
0.434248 -0.675374 0.070248 4 5
0.433732 -0.674570 0.098470 3 7
0.416652 -0.648007 0.122019 5 9
0.434269 -0.675406 0.156082 7 11
0.631901 -0.982777 -0.061233 3 12
0.427897 -0.665495 0.182660 5 13
0.512627 -0.797273 -0.016545 3 14
0.529713 -0.823847 0.262443 30 15
0.460154 -0.715664 0.044590 2 3
0.436403 -0.678725 0.070596 4 5
0.422996 -0.657873 0.096033 3 7
0.408105 -0.634714 0.119516 5 9
0.437454 -0.680360 0.157227 6 11
0.632981 -0.984457 -0.061338 3 12
0.434220 -0.675330 0.185360 5 13
0.555886 -0.864553 -0.017941 2 14
0.533892 -0.830347 0.264513 30 15
0.488062 -0.770251 0.015917 3 1
0.451121 -0.711951 0.044172 6 3
0.424428 -0.669824 0.069376 4 5
0.423936 -0.669048 0.097252 3 7
0.427147 -0.674116 0.126399 5 9
0.429780 -0.678271 0.156082 7 11
0.614679 -0.970076 -0.060186 3 12
0.429732 -0.678195 0.185360 5 13
0.571546 -0.902004 -0.018639 2 14
0.524237 -0.827342 0.262443 30 15
0.512679 -0.809101 0.016719 2 1
0.446845 -0.705203 0.043753 6 3
0.445756 -0.703484 0.072862 4 5
0.428186 -0.675755 0.098227 3 7
0.412345 -0.650756 0.122019 5 9
0.431882 -0.681588 0.156845 6 11
0.576195 -0.909341 -0.056418 3 12
0.417215 -0.658442 0.179961 5 13
0.618640 -0.976327 -0.020175 2 14
0.528373 -0.833870 0.264513 31 15
0.493258 -0.790605 0.016266 3 1
0.439797 -0.704916 0.043544 6 3
0.429233 -0.687984 0.070945 4 5
0.420305 -0.673675 0.097495 3 7
0.409883 -0.656970 0.122645 5 9
0.568443 -0.911114 -0.093954 1 10
0.428152 -0.686252 0.157227 6 11
0.414671 -0.664645 0.180861 5 13
0.624511 -1.000981 -0.020594 4 14
0.518449 -0.830982 0.262443 30 15
0.517603 -0.829626 0.017068 2 1
0.449311 -0.720167 0.044486 3 3
0.426069 -0.682913 0.070422 4 5
0.423458 -0.678728 0.098227 3 7
0.419294 -0.672054 0.125460 5 9
0.608519 -0.975349 -0.100578 1 10
0.420877 -0.674592 0.154555 7 11
0.620578 -0.994678 -0.061442 3 12
0.433239 -0.694405 0.188959 5 13
0.630862 -1.011160 -0.020803 9 14
0.522539 -0.837538 0.264513 30 15
0.555757 -0.904784 0.018534 6 1
0.428593 -0.697758 0.042915 6 3
0.426505 -0.694359 0.071293 4 5
0.416631 -0.678284 0.097739 3 7
0.399083 -0.649717 0.120767 5 9
0.606909 -0.988061 -0.101449 1 10
0.421296 -0.685878 0.156463 7 11
0.592712 -0.964949 -0.059349 3 12
0.434500 -0.707376 0.191658 5 13
0.612274 -0.996796 -0.020419 14 14
0.523757 -0.852688 0.268137 26 15
0.592389 -0.964422 0.019756 6 1
0.429638 -0.699460 0.043020 3 3
0.424419 -0.690964 0.070945 4 5
0.413514 -0.673210 0.097008 3 7
0.399083 -0.649717 0.120767 5 9
0.603781 -0.982968 -0.100926 3 10
0.430544 -0.700934 0.159898 6 11
0.434500 -0.707376 0.191658 5 13
0.610181 -0.993389 -0.020350 23 14
0.519713 -0.846104 0.266066 23 15
0.569086 -0.941155 0.019198 6 1
0.421644 -0.697315 0.042706 3 3
0.414430 -0.685385 0.070073 4 5
0.406750 -0.672683 0.096521 3 7
0.407825 -0.674462 0.124835 5 9
0.598965 -0.990569 -0.101275 3 10
0.425640 -0.703923 0.159898 6 11
0.599396 -0.991281 -0.060710 3 12
0.429551 -0.710392 0.191658 5 13
0.599092 -0.990779 -0.020210 26 14
0.514793 -0.851365 0.266584 27 15
0.538045 -0.889819 0.018151 6 1
0.436112 -0.721243 0.044172 6 3
0.419585 -0.693910 0.070945 4 5
0.408804 -0.676080 0.097008 7 7
0.404759 -0.669391 0.123896 5 9
0.601027 -0.993979 -0.101624 4 10
0.420560 -0.695523 0.157990 6 11
0.599396 -0.991281 -0.060710 3 12
0.429551 -0.710392 0.191658 5 13
0.600127 -0.992491 -0.020245 23 14
0.512794 -0.848058 0.265548 26 15
0.536068 -0.900334 0.018290 6 1
0.417910 -0.701885 0.042811 3 3
0.420968 -0.707022 0.071991 4 5
0.404193 -0.678847 0.097008 3 7
0.406257 -0.682314 0.125773 5 9
0.594248 -0.998047 -0.101624 4 10
0.412803 -0.693309 0.156845 6 11
0.444645 -0.746788 0.200656 5 13
0.588242 -0.987962 -0.020070 14 14
0.507009 -0.851529 0.265548 28 15
0.419953 -0.705317 0.043020 3 3
0.417910 -0.701886 0.071468 4 5
0.406224 -0.682259 0.097495 7 7
0.391098 -0.656855 0.121080 5 9
0.592209 -0.994623 -0.101275 4 10
0.414812 -0.696683 0.157608 6 11
0.572199 -0.961016 -0.058616 3 12
0.442651 -0.743439 0.199757 5 13
0.583127 -0.979371 -0.019896 15 14
0.509974 -0.856509 0.267101 25 15
0.579309 -0.988594 0.020000 10 1
0.406941 -0.694447 0.042183 3 3
0.416022 -0.709943 0.071991 4 5
0.393422 -0.671376 0.095546 7 7
0.388500 -0.662978 0.121706 5 9
0.587265 -1.002172 -0.101624 4 10
0.409938 -0.699562 0.157608 6 11
0.565476 -0.964988 -0.058616 3 12
0.441391 -0.753236 0.201556 5 13
0.570210 -0.973066 -0.019686 15 14
0.507889 -0.866715 0.269172 26 15
0.584364 -0.997220 0.020175 22 1
0.414009 -0.706509 0.042915 3 3
0.415014 -0.708224 0.071816 4 5
0.397436 -0.678227 0.096521 3 7
0.395491 -0.674908 0.123896 5 9
0.589280 -1.005610 -0.101972 4 10
0.413908 -0.706337 0.159135 6 11
0.559417 -0.954649 -0.057988 10 12
0.454199 -0.775094 0.207405 4 13
0.558078 -0.952362 -0.019267 15 14
0.508866 -0.868382 0.269689 26 15
0.580385 -1.006472 0.020280 26 1
0.413058 -0.716303 0.043334 3 3
0.403093 -0.699022 0.070596 4 5
0.404592 -0.701621 0.099445 6 7
0.392743 -0.681075 0.124522 5 9
0.572293 -0.992439 -0.100229 4 10
0.406025 -0.704107 0.157990 6 11
0.550744 -0.955070 -0.057779 10 12
0.469220 -0.813697 0.216853 4 13
0.544423 -0.944109 -0.019023 17 14
0.499896 -0.866893 0.268137 23 15
0.576389 -0.999543 0.020140 38 1
0.412060 -0.714572 0.043229 3 3
0.412051 -0.714556 0.072165 4 5
0.396658 -0.687864 0.097495 7 7
0.386823 -0.670807 0.122645 5 9
0.575278 -0.997617 -0.100752 4 10
0.405044 -0.702406 0.157608 6 11
0.538771 -0.934308 -0.056523 14 12
0.482849 -0.837331 0.223151 4 13
0.545422 -0.945841 -0.019058 22 14
0.503756 -0.873587 0.270207 18 15
0.567598 -0.999965 0.020070 42 1
0.409158 -0.720835 0.043439 3 3
0.406194 -0.715612 0.071991 4 5
0.393927 -0.694001 0.097983 7 7
0.368596 -0.649374 0.118264 5 9
0.563557 -0.992846 -0.099880 3 10
0.400254 -0.705147 0.157608 6 11
0.528455 -0.931006 -0.056104 14 12
0.506960 -0.893136 0.237098 13 13
0.536997 -0.946054 -0.018988 20 14
0.498752 -0.878676 0.270725 21 15
0.571546 -1.006921 0.020210 48 1
0.409158 -0.720835 0.043439 3 3
0.410128 -0.722543 0.072688 4 5
0.399806 -0.704359 0.099445 3 7
0.397850 -0.700912 0.127651 5 9
0.565524 -0.996312 -0.100229 1 10
0.406069 -0.715391 0.159898 6 11
0.508884 -0.896526 0.237998 13 13
0.527125 -0.928663 -0.018639 21 14
0.499705 -0.880356 0.271242 20 15
0.567250 -1.016224 0.020315 38 1
0.403990 -0.723744 0.043439 6 3
0.396207 -0.709801 0.071119 4 5
0.388951 -0.696802 0.097983 7 7
0.387047 -0.693391 0.125773 5 9
0.546727 -0.979456 -0.098137 1 10
0.399982 -0.716565 0.159516 6 11
0.515939 -0.924300 -0.055476 14 12
0.504355 -0.903547 0.238898 13 13
0.518517 -0.928919 -0.018569 21 14
0.495276 -0.887283 0.272278 20 15
0.565301 -1.012732 0.020245 26 1
0.402043 -0.720256 0.043229 6 3
0.398149 -0.713281 0.071468 4 5
0.392821 -0.703735 0.098958 6 7
0.385121 -0.689942 0.125148 5 9
0.539929 -0.967278 -0.096917 1 10
0.402853 -0.721707 0.160661 6 11
0.511071 -0.915580 -0.054953 14 12
0.514803 -0.922265 0.243847 12 13
0.511695 -0.916697 -0.018325 18 14
0.494334 -0.885596 0.271760 13 15
0.551655 -1.004287 0.020000 20 1
0.405785 -0.738731 0.044172 6 3
0.394244 -0.717721 0.071642 4 5
0.388022 -0.706393 0.098958 3 7
0.380416 -0.692547 0.125148 5 9
0.531414 -0.967439 -0.096569 1 10
0.394150 -0.717550 0.159135 6 11
0.514143 -0.935996 0.246546 4 13
0.504480 -0.918406 -0.018290 13 14
0.492945 -0.897406 0.274348 12 15
0.545879 -0.993771 0.019791 18 1
0.400016 -0.728228 0.043544 6 3
0.391366 -0.712482 0.071119 4 5
0.382287 -0.695953 0.097495 7 7
0.388025 -0.706398 0.127651 5 9
0.517985 -0.942991 -0.094128 1 10
0.395095 -0.719271 0.159516 6 11
0.482711 -0.878775 -0.052545 10 12
0.576065 -1.048725 0.276240 3 13
0.507369 -0.923664 -0.018395 18 14
0.498526 -0.907566 0.277454 7 15
0.539878 -0.999317 0.019826 16 1
0.391125 -0.723974 0.043125 6 3
0.381648 -0.706432 0.070248 4 5
0.376476 -0.696859 0.097252 3 7
0.371816 -0.688234 0.123896 5 9
0.526541 -0.974631 -0.096917 1 10
0.393797 -0.728920 0.161043 6 11
0.475615 -0.880366 -0.052441 10 12
0.640052 -1.184740 0.310882 3 13
0.496156 -0.918386 -0.018220 13 14
0.501360 -0.928020 0.282630 3 15
0.540829 -1.001076 0.019861 18 1
0.398719 -0.738031 0.043962 9 3
0.393012 -0.727467 0.072339 4 5
0.377419 -0.698605 0.097495 7 7
0.379328 -0.702138 0.126399 5 9
0.515177 -0.953596 -0.094825 1 10
0.395663 -0.732375 0.161806 6 11
0.469919 -0.869823 -0.051813 11 12
0.652094 -1.207029 0.316731 9 13
0.490453 -0.907830 -0.018011 13 14
0.529136 -0.995998 0.019686 18 1
0.397305 -0.747852 0.044381 9 3
0.372968 -0.702041 0.069550 4 5
0.375327 -0.706482 0.098227 3 7
0.380904 -0.716980 0.128589 5 9
0.502899 -0.946612 -0.093780 1 10
0.390541 -0.735119 0.161806 6 11
0.465709 -0.876610 -0.052022 11 12
0.651880 -1.227041 0.320780 9 13
0.479412 -0.902402 -0.017836 10 14
0.520692 -0.980104 0.019372 18 1
0.399179 -0.751380 0.044590 8 3
0.377641 -0.710839 0.070422 4 5
0.375327 -0.706482 0.098227 3 7
0.374417 -0.704769 0.126399 5 9
0.503834 -0.948371 -0.093954 1 10
0.392383 -0.738587 0.162569 6 11
0.457276 -0.860736 -0.051080 12 12
0.645480 -1.214994 0.317631 6 13
0.476597 -0.897105 -0.017732 10 14
0.892759 -1.680450 0.509874 63 15
0.516787 -0.988943 0.019477 18 1
0.399606 -0.764700 0.045218 11 3
0.372794 -0.713393 0.070422 4 5
0.363154 -0.694946 0.096277 3 7
0.371441 -0.710803 0.127025 5 9
0.498289 -0.953545 -0.094128 1 10
0.386437 -0.739501 0.162188 6 11
0.436606 -0.835506 -0.049405 13 12
0.638097 -1.221087 0.318081 3 13
0.469554 -0.898556 -0.017697 10 14
0.885773 -1.695048 0.512462 66 15
0.519565 -0.994260 0.019582 18 1
0.398681 -0.762930 0.045114 11 3
0.389404 -0.745178 0.073559 4 5
0.364074 -0.696705 0.096521 3 7
0.371441 -0.710803 0.127025 5 9
0.487216 -0.932355 -0.092036 1 10
0.390984 -0.748201 0.164096 2 11
0.432906 -0.828425 -0.048986 18 12
0.637195 -1.219359 0.317631 3 13
0.472332 -0.903872 -0.017801 10 14
0.884878 -1.693336 0.511944 63 15
0.511698 -0.996084 0.019547 16 1
0.393345 -0.765695 0.045114 14 3
0.382371 -0.744334 0.073211 4 5
0.371900 -0.723950 0.099933 3 7
0.361956 -0.704593 0.125460 5 9
0.466129 -0.907378 -0.089247 1 10
0.613613 -1.194474 0.261027 1 11
0.428025 -0.833204 -0.049091 18 12
0.623324 -1.213378 0.314931 3 13
0.457787 -0.891139 -0.017487 10 14
0.871270 -1.696036 0.510909 63 15
0.511698 -0.996084 0.019547 12 1
0.397908 -0.774578 0.045637 19 3
0.386923 -0.753195 0.074082 4 5
0.365550 -0.711590 0.098227 3 7
0.242189 -0.471450 -0.065078 4 8
0.366469 -0.713379 0.127025 5 9
0.467039 -0.909150 -0.089422 1 10
0.630657 -1.227654 0.268277 3 11
0.428025 -0.833204 -0.049091 18 12
0.630447 -1.227245 0.318531 3 13
0.458700 -0.892918 -0.017522 10 14
0.865090 -1.684007 0.507285 69 15
0.504732 -0.999632 0.019547 8 1
0.391591 -0.775554 0.045532 27 3
0.369084 -0.730978 0.071642 4 5
0.369521 -0.731845 0.100664 3 7
0.244260 -0.483762 -0.066541 4 8
0.360590 -0.714156 0.126712 5 9
0.473253 -0.937288 -0.091862 1 10
0.624726 -1.237284 0.269422 3 11
0.425799 -0.843303 -0.049510 17 12
0.614838 -1.217700 0.314931 3 13
0.454258 -0.899669 -0.017592 10 14
0.858538 -1.700352 0.510391 74 15
0.505633 -1.001417 0.019582 6 1
0.389790 -0.771988 0.045323 27 3
0.377166 -0.746985 0.073211 4 5
0.359679 -0.712353 0.097983 7 7
0.281838 -0.558187 -0.076778 3 8
0.367713 -0.728263 0.129215 5 9
0.460681 -0.912389 -0.089422 1 10
0.620302 -1.228522 0.267514 3 11
0.417697 -0.827257 -0.048568 18 12
0.617473 -1.222918 0.316281 3 13
0.454258 -0.899669 -0.017592 10 14
0.858538 -1.700352 0.510391 71 15
0.553736 -1.115984 0.021746 7 1
0.379952 -0.765745 0.044800 31 3
0.364857 -0.735322 0.071816 4 5
0.349403 -0.704177 0.096521 3 7
0.332639 -0.670391 -0.091889 2 8
0.367010 -0.739660 0.130779 5 9
0.454300 -0.915582 -0.089422 1 10
0.604729 -1.218753 0.264461 2 11
0.416350 -0.839099 -0.049091 18 12
0.602857 -1.214980 0.313132 3 13
0.446189 -0.899235 -0.017522 7 14
0.848363 -1.709766 0.511426 71 15
0.524405 -1.056870 0.020594 6 1
0.379065 -0.763956 0.044695 34 3
0.369285 -0.744245 0.072688 4 5
0.263404 -0.530856 -0.093861 5 6
0.367050 -0.739741 0.101395 3 7
0.352933 -0.711290 -0.097495 2 8
0.353839 -0.713117 0.126086 5 9
0.456071 -0.919152 -0.089770 1 10
0.603857 -1.216994 0.264080 1 11
0.423452 -0.853412 -0.049929 17 12
0.614983 -1.239419 0.319431 3 13
0.447966 -0.902818 -0.017592 7 14
0.843211 -1.699383 0.508321 74 15
0.416538 -0.853652 0.016580 8 1
0.380996 -0.780813 0.045532 35 3
0.363467 -0.744888 0.072514 4 5
0.228692 -0.468681 -0.082597 5 6
0.353431 -0.724319 0.098958 3 7
0.349948 -0.717183 -0.097983 5 8
0.360363 -0.738527 0.130153 5 9
0.427248 -0.875601 -0.085238 2 10
0.597494 -1.224501 0.264843 1 11
0.415155 -0.850817 -0.049614 17 12
0.598204 -1.225957 0.314931 3 13
0.441092 -0.903972 -0.017557 7 14
0.828533 -1.697993 0.506250 76 15
0.398123 -0.815911 0.015847 9 1
0.386252 -0.791583 0.046160 36 3
0.368709 -0.755631 0.073559 4 5
0.278069 -0.569873 -0.100431 4 6
0.358654 -0.735023 0.100420 6 7
0.354301 -0.726103 -0.099202 5 8
0.362962 -0.743853 0.131092 4 9
0.606964 -1.243910 0.269041 1 11
0.405520 -0.831072 -0.048463 18 12
0.442846 -0.907566 -0.017627 7 14
0.826839 -1.694520 0.505215 74 15
0.395010 -0.824080 0.015951 13 1
0.374673 -0.781652 0.045428 41 3
0.363425 -0.758187 0.073559 4 5
0.291160 -0.607427 -0.106688 4 6
0.347507 -0.724979 0.098714 3 7
0.339785 -0.708868 -0.096521 5 8
0.356906 -0.744588 0.130779 5 9
0.221327 -0.461739 -0.044798 6 10
0.609297 -1.271132 0.274002 1 11
0.404025 -0.842888 -0.048986 18 12
0.625008 -1.303909 0.333827 2 13
0.444278 -0.926865 -0.017941 7 14
0.818329 -1.707220 0.507285 76 15
0.390688 -0.815064 0.015777 13 1
0.371220 -0.774448 0.045009 43 3
0.366870 -0.765373 0.074257 4 5
0.260422 -0.543300 -0.095425 4 6
0.350081 -0.730349 0.099445 6 7
0.349223 -0.728559 -0.099202 5 8
0.356906 -0.744588 0.130779 5 9
0.226495 -0.472519 -0.045844 6 10
0.607600 -1.267591 0.273238 1 11
0.397119 -0.828480 -0.048149 14 12
0.611531 -1.275793 0.326629 2 13
0.454650 -0.948504 -0.018360 5 14
0.818329 -1.707220 0.507285 76 15
0.390806 -0.830505 0.016021 12 1
0.367369 -0.780699 0.045218 46 3
0.359687 -0.764373 0.073908 4 5
0.312880 -0.664903 -0.116387 3 6
0.344846 -0.732835 0.099445 6 7
0.340620 -0.723855 -0.098227 5 8
0.354934 -0.754272 0.132031 4 9
0.615232 -1.307434 0.280871 1 11
0.399684 -0.849372 -0.049196 13 12
0.623959 -1.325981 0.338326 2 13
0.495532 -1.053058 -0.020315 2 14
0.799511 -1.699048 0.503144 71 15
0.382292 -0.812411 0.015672 23 1
0.370771 -0.787928 0.045637 44 3
0.365625 -0.776993 0.075128 3 5
0.321291 -0.682777 -0.119516 7 6
0.356679 -0.757982 0.102858 6 7
0.355834 -0.756186 -0.102614 4 8
0.354934 -0.754272 0.132031 4 9
0.223108 -0.474128 -0.045844 6 10
0.605201 -1.286118 0.276291 1 11
0.396283 -0.842143 -0.048777 13 12
0.625619 -1.329508 0.339226 2 13
0.606218 -1.288277 -0.024852 4 14
0.797866 -1.695552 0.502109 76 15
0.372417 -0.805984 0.015498 24 1
0.366936 -0.794123 0.045846 44 3
0.350999 -0.759631 0.073211 8 5
0.326459 -0.706522 -0.123270 3 6
0.344718 -0.746037 0.100908 6 7
0.343885 -0.744235 -0.100664 5 8
0.546860 -1.183514 0.206493 2 9
0.254892 -0.551637 -0.053165 5 10
0.601149 -1.301005 0.278581 1 11
0.392907 -0.850328 -0.049091 9 12
0.629400 -1.362147 0.346425 2 13
0.606435 -1.312446 -0.025236 3 14
0.786010 -1.701081 0.502109 76 15
0.377449 -0.816875 0.015707 30 1
0.366936 -0.794123 0.045846 44 3
0.358520 -0.775909 0.074780 7 5
0.328945 -0.711901 -0.124209 6 6
0.343052 -0.742433 0.100420 6 7
0.347216 -0.751443 -0.101639 4 8
0.639661 -1.384352 0.241535 1 9
0.246535 -0.533551 -0.051422 5 10
0.615148 -1.331302 0.285069 1 11
0.373639 -0.808628 -0.046684 5 12
0.637574 -1.379837 0.350924 2 13
0.613146 -1.326969 -0.025515 1 14
0.789251 -1.708095 0.504179 79 15
0.373533 -0.823067 0.015777 30 1
0.356570 -0.785690 0.045218 46 3
0.354054 -0.780146 0.074954 11 5
0.330622 -0.728514 -0.126712 6 6
0.341272 -0.751982 0.101395 6 7
0.342913 -0.755597 -0.101883 7 8
0.621243 -1.368887 0.238093 1 9
0.261012 -0.575131 -0.055257 5 10
0.620676 -1.367638 0.291938 1 11
0.357396 -0.787509 -0.045323 5 12
0.677293 -1.492393 0.378368 2 13
0.610710 -1.345679 -0.025795 1 14
0.777606 -1.713428 0.504179 76 15
0.375186 -0.826709 0.015847 29 1
0.358221 -0.789328 0.045428 44 3
0.361465 -0.796475 0.076523 14 5
0.325724 -0.717722 -0.124835 6 6
0.345374 -0.761020 0.102614 6 7
0.337991 -0.744751 -0.100420 7 8
0.642468 -1.415656 0.246228 1 9
0.228077 -0.502559 -0.048284 6 10
0.624733 -1.376577 0.293846 1 11
0.340888 -0.751134 -0.043229 6 12
0.696622 -1.534982 0.389165 5 13
0.604925 -1.332932 -0.025550 3 14
0.777606 -1.713428 0.504179 79 15
0.368592 -0.827482 0.015812 29 1
0.355952 -0.799107 0.045846 44 3
0.356706 -0.800799 0.076697 14 5
0.330351 -0.741632 -0.128589 6 6
0.338437 -0.759786 0.102127 9 7
0.337630 -0.757972 -0.101883 7 8
0.634177 -1.423716 0.246854 1 9
0.256180 -0.575119 -0.055082 5 10
0.629486 -1.413186 0.300715 1 11
0.685095 -1.538028 0.388715 5 13
0.608624 -1.366350 -0.026109 3 14
0.755406 -1.695874 0.497450 74 15
0.362896 -0.814695 0.015568 35 1
0.355952 -0.799107 0.045846 46 3
0.350220 -0.786239 0.075303 15 5
0.323920 -0.727196 -0.126086 6 6
0.341668 -0.767039 0.103101 9 7
0.351361 -0.788799 -0.106026 6 8
0.645430 -1.448978 0.251234 1 9
0.290229 -0.651559 -0.062404 4 10
0.623095 -1.398839 0.297662 1 11
0.328321 -0.737076 -0.042287 6 12
0.730293 -1.639495 0.414360 6 13
0.611878 -1.373656 -0.026248 3 14
0.756978 -1.699403 0.498485 74 15
0.361348 -0.826307 0.015742 33 1
0.347304 -0.794192 0.045428 44 3
0.347256 -0.794081 0.075825 22 5
0.317380 -0.725764 -0.125460 6 6
0.338825 -0.774803 0.103833 9 7
0.335644 -0.767528 -0.102858 7 8
0.647424 -1.480486 0.255927 1 9
0.316122 -0.722887 -0.069027 3 10
0.626146 -1.431828 0.303768 1 11
0.314494 -0.719164 -0.041136 13 12
0.745664 -1.705134 0.429657 12 13
0.618539 -1.414433 -0.026947 3 14
0.746942 -1.708056 0.499521 79 15
0.360547 -0.824475 0.015707 33 1
0.348904 -0.797851 0.045637 44 3
0.351247 -0.803208 0.076697 29 5
0.320546 -0.733004 -0.126712 6 6
0.335644 -0.767528 0.102858 6 7
0.319737 -0.731152 -0.097983 7 8
0.656922 -1.502205 0.259681 1 9
0.314526 -0.719236 -0.068679 3 10
0.632439 -1.446218 0.306821 1 11
0.319296 -0.730144 -0.041764 19 12
0.745394 -1.704516 0.498485 79 15
0.355715 -0.828748 0.015742 37 1
0.340315 -0.792867 0.045218 43 3
0.341842 -0.796426 0.075825 30 5
0.310875 -0.724277 -0.124835 6 6
0.333544 -0.777092 0.103833 3 7
0.321799 -0.749729 -0.100177 7 8
0.643565 -1.499381 0.258430 1 9
0.311980 -0.726853 -0.069202 3 10
0.631872 -1.472138 0.311400 3 11
0.315106 -0.734136 -0.041869 18 12
0.736346 -1.715542 0.431006 82 13
0.611263 -1.424123 -0.027051 5 14
0.735298 -1.713101 0.499521 74 15
0.354138 -0.825072 0.015672 40 1
0.341890 -0.796537 0.045428 44 3
0.341842 -0.796426 0.075825 37 5
0.318666 -0.742429 -0.127963 6 6
0.329629 -0.767971 0.102614 3 7
0.338241 -0.788037 -0.105295 6 8
0.655252 -1.526609 0.263123 1 9
0.320625 -0.746993 -0.071119 7 10
0.645036 -1.502808 0.317888 3 11
0.311955 -0.726794 -0.041450 19 12
0.735577 -1.713751 0.430556 97 13
0.575770 -1.341432 -0.025481 7 14
0.727678 -1.695349 0.494344 81 15
0.346674 -0.823899 0.015602 40 1
0.340055 -0.808168 0.045951 41 3
0.335362 -0.797015 0.075651 30 5
0.310281 -0.737408 -0.126712 6 6
0.327974 -0.779459 0.103833 3 7
0.331824 -0.788607 -0.105051 6 8
0.660400 -1.569495 0.269693 1 9
0.318362 -0.756614 -0.071816 7 10
0.649494 -1.543577 0.325520 3 11
0.308295 -0.732690 -0.041659 25 12
0.717249 -1.704601 0.426957 81 13
0.560727 -1.332615 -0.025236 15 14
0.717027 -1.704074 0.495380 84 15
0.345898 -0.822056 0.015568 42 1
0.338505 -0.804486 0.045742 41 3
0.336134 -0.798852 0.075825 30 5
0.316410 -0.751974 -0.129215 6 6
0.675966 -1.606490 0.214003 2 7
0.325665 -0.773969 -0.103101 7 8
0.684149 -1.625938 0.279392 2 9
0.320680 -0.762123 -0.072339 10 10
0.672337 -1.597865 0.336969 3 11
0.303648 -0.721644 -0.041031 26 12
0.717249 -1.704601 0.426957 88 13
0.563054 -1.338145 -0.025341 16 14
0.718525 -1.707635 0.496415 84 15
0.340295 -0.824391 0.015568 42 1
0.329211 -0.797541 0.045218 43 3
0.332209 -0.804805 0.076174 26 5
0.306761 -0.743154 -0.127338 6 6
0.671075 -1.625733 0.215952 3 7
0.307513 -0.744975 -0.098958 7 8
0.683618 -1.656121 0.283772 3 9
0.310164 -0.751396 -0.071119 10 10
0.676427 -1.638699 0.344601 3 11
0.299491 -0.725541 -0.041136 26 12
0.701911 -1.700438 0.424708 100 13
0.550118 -1.332705 -0.025166 13 14
0.706885 -1.712486 0.496415 84 15
0.344110 -0.833633 0.015742 40 1
0.333021 -0.806772 0.045742 38 3
0.332970 -0.806646 0.076348 22 5
0.311284 -0.754110 -0.129215 6 6
0.687738 -1.666101 0.221315 4 7
0.312815 -0.757819 -0.100664 7 8
0.697185 -1.688987 0.289404 5 9
0.311684 -0.755080 -0.071468 10 10
0.705641 -1.709473 0.359484 8 11
0.301777 -0.731079 -0.041450 25 12
0.703399 -1.704040 0.425607 100 13
0.546303 -1.323462 -0.024992 7 14
0.705411 -1.708915 0.495380 81 15
0.336176 -0.830396 0.015637 40 1
0.329021 -0.812722 0.045951 41 3
0.330462 -0.816281 0.077046 25 5
0.292801 -0.723253 -0.123583 6 6
0.318078 -0.785691 -0.104076 7 8
0.298313 -0.736869 -0.069550 11 10
0.298293 -0.736819 -0.041659 25 12
0.693977 -1.714207 0.426957 96 13
0.496760 -1.227058 -0.023107 8 14
0.689413 -1.702933 0.492274 79 15
0.331674 -0.819274 0.015428 45 1
0.327522 -0.809020 0.045742 38 3
0.328967 -0.812587 0.076697 21 5
0.294283 -0.726915 -0.124209 6 6
0.309139 -0.763611 -0.101152 7 8
0.297565 -0.735022 -0.069376 11 10
0.686622 -1.696038 0.355668 58 11
0.296794 -0.733116 -0.041450 31 12
0.693246 -1.712401 0.426507 93 13
0.342930 -0.847078 -0.015951 11 14
0.687963 -1.699351 0.491239 81 15
0.324471 -0.817852 0.015358 47 1
0.321866 -0.811286 0.045742 38 3
0.323286 -0.814864 0.076697 21 5
0.272447 -0.686720 -0.117013 7 6
0.675682 -1.703102 0.224971 84 7
0.307461 -0.774976 -0.102370 7 8
0.681116 -1.716801 0.292532 92 9
0.292427 -0.737082 -0.069376 11 10
0.677661 -1.708090 0.357194 75 11
0.288722 -0.727744 -0.041031 32 12
0.678400 -1.709954 0.424708 100 13
0.337745 -0.851310 -0.015986 15 14
0.677507 -1.707704 0.492274 76 15
0.328896 -0.829005 0.015568 45 1
0.321866 -0.811286 0.045742 35 3
0.329164 -0.829680 0.078092 17 5
0.285559 -0.719771 -0.122645 3 6
0.673486 -1.697567 0.224240 84 7
0.307461 -0.774976 -0.102370 7 8
0.680388 -1.714965 0.292220 96 9
0.289488 -0.729674 -0.068679 15 10
0.681281 -1.717215 0.359103 80 11
0.285776 -0.720318 -0.040613 39 12
0.678400 -1.709954 0.424708 100 13
0.338483 -0.853169 -0.016021 15 14
0.680357 -1.714887 0.494344 79 15
0.327447 -0.842464 0.015777 43 1
0.319089 -0.820960 0.046160 34 3
0.321920 -0.828244 0.077743 17 5
0.261921 -0.673876 -0.114510 3 6
0.664495 -1.709628 0.225215 82 7
0.304920 -0.784505 -0.103345 7 8
0.663389 -1.706785 0.290029 88 9
0.282943 -0.727963 -0.068330 15 10
0.672121 -1.729249 0.360629 80 11
0.282187 -0.726019 -0.040822 39 12
0.666446 -1.714648 0.424708 100 13
0.329620 -0.848056 -0.015882 15 14
0.665569 -1.712393 0.492274 79 15
0.321651 -0.827553 0.015498 49 1
0.317642 -0.817237 0.045951 35 3
0.320476 -0.824530 0.077394 14 5
0.228286 -0.587340 -0.099805 4 6
0.664495 -1.709628 0.225215 79 7
0.300605 -0.773403 -0.101883 7 8
0.663389 -1.706785 0.290029 88 9
0.280056 -0.720535 -0.067633 16 10
0.666431 -1.714610 0.357576 80 11
0.283635 -0.729742 -0.041031 39 12
0.667152 -1.716464 0.425157 100 13
0.332518 -0.855511 -0.016021 15 14
0.659970 -1.697988 0.488133 71 15
0.314588 -0.825986 0.015428 49 1
0.314204 -0.824980 0.046265 28 3
0.317693 -0.834140 0.078092 14 5
0.232017 -0.609187 -0.103247 4 6
0.650016 -1.706692 0.224240 84 7
0.296040 -0.777287 -0.102127 7 8
0.654568 -1.718645 0.291281 88 9
0.273727 -0.718701 -0.067284 16 10
0.651949 -1.711767 0.356050 86 11
0.274396 -0.720457 -0.040403 39 12
0.654065 -1.717324 0.424258 97 13
0.325975 -0.855886 -0.015986 15 14
0.647022 -1.698830 0.487097 81 15
0.318858 -0.837198 0.015637 43 1
0.314915 -0.826846 0.046370 28 3
0.322657 -0.847173 0.079312 13 5
0.206003 -0.540884 -0.091671 5 6
0.647190 -1.699271 0.223265 94 7
0.305931 -0.803258 -0.105539 6 8
0.655272 -1.720491 0.291594 86 9
0.280818 -0.737320 -0.069027 15 10
0.651949 -1.711767 0.356050 86 11
0.275817 -0.724190 -0.040613 26 12
0.654065 -1.717324 0.424258 97 13
0.327399 -0.859623 -0.016056 22 14
0.648397 -1.702441 0.488133 76 15
0.311608 -0.835657 0.015568 45 1
0.305646 -0.819667 0.045846 30 3
0.334834 -0.897942 0.083844 11 5
0.217406 -0.583028 -0.098554 4 6
0.635311 -1.703748 0.223265 86 7
0.289219 -0.775614 -0.101639 7 8
0.639794 -1.715769 0.290029 88 9
0.275664 -0.739262 -0.069027 15 10
0.641355 -1.719956 0.356813 86 11
0.270755 -0.726098 -0.040613 33 12
0.637294 -1.709066 0.421108 100 13
0.316499 -0.848772 -0.015812 27 14
0.637846 -1.710546 0.489168 79 15
0.315800 -0.846899 0.015777 43 1
0.309135 -0.829024 0.046370 28 3
0.419761 -1.125695 0.105110 8 5
0.189799 -0.508993 -0.086039 5 6
0.636698 -1.707468 0.223752 79 7
0.294074 -0.788634 -0.103345 7 8
0.637033 -1.708365 0.288778 88 9
0.265918 -0.713127 -0.066587 16 10
0.642727 -1.723635 0.357576 83 11
0.271453 -0.727969 -0.040717 26 12
0.637294 -1.709066 0.421108 100 13
0.315800 -0.846899 -0.015777 32 14
0.636496 -1.706926 0.488133 81 15
0.305767 -0.837812 0.015568 42 1
0.301286 -0.825534 0.046056 28 3
0.449461 -1.231538 0.114697 16 5
0.207912 -0.569687 -0.096051 4 6
0.626124 -1.715601 0.224240 77 7
0.287881 -0.788803 -0.103101 7 8
0.624414 -1.710915 0.288465 96 9
0.256835 -0.703736 -0.065541 16 10
0.630678 -1.728080 0.357576 88 11
0.271157 -0.742980 -0.041450 25 12
0.630024 -1.726288 0.424258 100 13
0.308509 -0.845326 -0.015707 32 14
0.620590 -1.700439 0.485027 76 15
0.305767 -0.837812 0.015568 45 1
0.307448 -0.842420 0.046998 27 3
0.484297 -1.326991 0.123587 15 5
0.210621 -0.577109 -0.097302 4 6
0.624763 -1.711871 0.223752 79 7
0.290603 -0.796262 -0.104076 7 8
0.625768 -1.714627 0.289091 98 9
0.255469 -0.699993 -0.065192 12 10
0.623947 -1.709637 0.353760 88 11
0.260886 -0.714837 -0.039880 27 12
0.629356 -1.724458 0.423808 100 13
0.312623 -0.856597 -0.015917 34 14
0.621915 -1.704068 0.486062 84 15
0.299910 -0.839926 0.015568 42 1
0.301560 -0.844545 0.046998 27 3
0.477701 -1.337846 0.124284 19 5
0.610126 -1.708713 0.222777 88 7
0.283034 -0.792663 -0.103345 7 8
0.615775 -1.724535 0.290029 92 9
0.247895 -0.694254 -0.064495 12 10
0.611997 -1.713952 0.353760 83 11
0.254546 -0.712879 -0.039671 27 12
0.614681 -1.721468 0.422008 100 13
0.310669 -0.870058 -0.016126 32 14
0.611302 -1.712007 0.487097 84 15
0.302600 -0.847459 0.015707 40 1
0.300888 -0.842664 0.046893 27 3
0.483061 -1.352857 0.125679 21 5
0.610126 -1.708713 0.222777 86 7
0.284369 -0.796402 -0.103833 7 8
0.613783 -1.718954 0.289091 96 9
0.249235 -0.698006 -0.064844 12 10
0.613317 -1.717649 0.354523 91 11
0.254546 -0.712879 -0.039671 27 12
0.610093 -1.708622 0.418859 100 13
0.306635 -0.858758 -0.015917 31 14
0.612602 -1.715646 0.488133 86 15
0.301291 -0.862766 0.015951 35 1
0.293681 -0.840973 0.046684 28 3
0.472291 -1.352434 0.125330 22 5
0.599491 -1.716679 0.223265 92 7
0.274876 -0.787124 -0.102370 7 8
0.598511 -1.713872 0.287527 92 9
0.239758 -0.686562 -0.063624 13 10
0.603900 -1.729303 0.356050 88 11
0.250880 -0.718410 -0.039880 27 12
0.600720 -1.720198 0.420658 100 13
0.297336 -0.851439 -0.015742 28 14
0.598062 -1.712586 0.486062 91 15
0.296017 -0.847663 0.015672 37 1
0.296315 -0.848516 0.047102 27 3
0.470320 -1.346791 0.124807 24 5
0.600800 -1.720427 0.223752 87 7
0.276185 -0.790872 -0.102858 7 8
0.597860 -1.712007 0.287214 98 9
0.237788 -0.680919 -0.063101 13 10
0.601311 -1.721889 0.354523 86 11
0.248904 -0.712753 -0.039566 27 12
0.603290 -1.727557 0.422458 100 13
0.298654 -0.855214 -0.015812 27 14
0.591692 -1.694347 0.480886 81 15
0.294119 -0.861012 0.015882 35 1
0.291824 -0.854293 0.047312 27 3
0.463075 -1.355617 0.125330 26 5
0.586509 -1.716963 0.222777 97 7
0.277854 -0.813397 -0.105539 6 8
0.588747 -1.723514 0.288465 96 9
0.229283 -0.671210 -0.062055 13 10
0.584499 -1.711080 0.351470 88 11
0.241465 -0.706871 -0.039147 28 12
0.588997 -1.724247 0.420658 97 13
0.290887 -0.851550 -0.015707 20 14
0.583893 -1.709304 0.483992 91 15
0.292180 -0.855335 0.015777 37 1
0.289887 -0.848623 0.046998 30 3
0.466939 -1.366930 0.126376 26 5
0.582659 -1.705692 0.221315 94 7
0.272720 -0.798369 -0.103589 4 8
0.588747 -1.723514 0.288465 98 9
0.230571 -0.674981 -0.062404 13 10
0.583230 -1.707364 0.350707 88 11
0.238237 -0.697421 -0.038624 28 12
0.589627 -1.726091 0.421108 100 13
0.297351 -0.870474 -0.016056 22 14
0.585142 -1.712960 0.485027 84 15
0.289367 -0.866838 0.015951 35 1
0.282058 -0.844943 0.046684 31 3
0.457385 -1.370156 0.126376 24 5
0.570737 -1.709718 0.221315 97 7
0.264626 -0.792722 -0.102614 7 8
0.574198 -1.720087 0.287214 98 9
0.229639 -0.687913 -0.063449 13 10
0.576269 -1.726292 0.353760 91 11
0.230832 -0.691489 -0.038205 29 12
0.574477 -1.720923 0.418859 100 13
0.287468 -0.861148 -0.015847 23 14
0.571946 -1.713339 0.483992 91 15
0.290000 -0.868735 0.015986 34 1
0.283323 -0.848732 0.046893 27 3
0.461170 -1.381496 0.127422 29 5
0.573251 -1.717250 0.222290 92 7
0.273426 -0.819083 -0.106026 4 8
0.571696 -1.712592 0.285962 98 9
0.223330 -0.669014 -0.061706 13 10
0.575026 -1.722567 0.352997 88 11
0.229567 -0.687700 -0.037996 29 12
0.575094 -1.722772 0.419309 100 13
0.285568 -0.855457 -0.015742 28 14
0.571334 -1.711506 0.483474 89 15
0.284080 -0.870689 0.015986 34 1
0.280017 -0.858235 0.047312 27 3
0.444958 -1.363767 0.125504 26 5
0.562780 -1.724886 0.222777 100 7
0.262918 -0.805828 -0.104076 7 8
0.560026 -1.716444 0.285962 96 9
0.216299 -0.662942 -0.061009 13 10
0.561461 -1.720842 0.351852 94 11
0.229837 -0.704437 -0.038833 28 12
0.564563 -1.730352 0.420209 100 13
0.276637 -0.847876 -0.015568 20 14
0.557873 -1.709846 0.481921 84 15
0.280979 -0.861183 0.015812 39 1
0.282495 -0.865830 0.047730 26 3
0.464116 -1.422485 0.130908 30 5
0.559086 -1.713563 0.221315 94 7
0.262918 -0.805828 -0.104076 4 8
0.563089 -1.725834 0.287527 100 9
0.215681 -0.661048 -0.060835 13 10
0.559025 -1.713377 0.350325 94 11
0.224262 -0.687348 -0.037891 29 12
0.566981 -1.737762 0.422008 100 13
0.277878 -0.851678 -0.015637 20 14
0.556075 -1.704336 0.480368 89 15
0.276174 -0.866935 0.015882 39 1
0.274019 -0.860169 0.047312 27 3
0.545904 -1.713642 0.220827 94 7
0.259094 -0.813318 -0.104808 4 8
0.550427 -1.727841 0.287214 96 9
0.214084 -0.672030 -0.061706 13 10
0.548837 -1.722849 0.351470 91 11
0.215820 -0.677479 -0.037263 29 12
0.551878 -1.732394 0.419759 100 13
0.271925 -0.853597 -0.015637 16 14
0.546509 -1.715540 0.482439 84 15
0.277995 -0.872651 0.015986 37 1
0.272200 -0.854460 0.046998 27 3
0.551539 -1.731331 0.158972 90 5
0.544699 -1.709859 0.220340 88 7
0.245235 -0.769815 -0.099202 5 8
0.548629 -1.722194 0.286275 100 9
0.211061 -0.662538 -0.060835 13 10
0.547646 -1.719108 0.350707 91 11
0.215820 -0.677479 -0.037263 29 12
0.547737 -1.719397 0.416609 100 13
0.274353 -0.861219 -0.015777 16 14
0.547682 -1.719221 0.483474 84 15
0.273237 -0.878342 0.016056 37 1
0.271124 -0.871550 0.047835 26 3
0.536191 -1.723631 0.157926 52 5
0.532459 -1.711631 0.220096 33 7
0.250014 -0.803690 -0.103345 2 8
0.532786 -1.712685 0.284085 38 9
0.207730 -0.667764 -0.061183 13 10
0.211204 -0.678932 -0.037263 29 12
0.534285 -1.717502 0.415260 79 13
0.264921 -0.851609 -0.015568 16 14
0.535393 -1.721065 0.482956 21 15
0.271455 -0.872613 0.015951 39 1
0.272904 -0.877271 0.048149 24 3
0.253552 -0.815063 -0.104808 2 8
0.201220 -0.646837 -0.059266 14 10
0.480531 -1.544705 0.314453 10 11
0.213577 -0.686560 -0.037682 29 12
0.264921 -0.851609 -0.015568 16 14
0.480304 -1.543978 0.433263 4 15
0.264928 -0.872527 0.015917 39 1
0.269827 -0.888664 0.048672 24 3
0.459614 -1.513718 0.138403 6 5
0.464275 -1.529068 0.196210 33 7
0.246844 -0.812971 -0.104320 2 8
0.467168 -1.538596 0.254675 30 9
0.201443 -0.663443 -0.060660 14 10
0.463160 -1.525397 0.309874 29 11
0.206578 -0.680354 -0.037263 29 12
0.468229 -1.542090 0.372069 40 13
0.262023 -0.862960 -0.015742 16 14
0.266090 -0.876354 0.015986 37 1
0.269247 -0.886753 0.048568 22 3
0.459614 -1.513718 0.138403 6 5
0.456777 -1.504375 0.193041 35 7
0.220891 -0.727495 -0.093352 2 8
0.470038 -1.548047 0.256240 45 9
0.204337 -0.672975 -0.061532 13 10
0.463160 -1.525397 0.309874 27 11
0.203096 -0.668887 -0.036635 30 12
0.466530 -1.536496 0.370719 45 13
0.261442 -0.861047 -0.015707 16 14
0.465855 -1.534271 0.429640 25 15
0.262648 -0.887824 0.016161 36 1
0.261762 -0.884827 0.048358 22 3
0.450466 -1.522700 0.138926 6 5
0.449943 -1.520930 0.194747 35 7
0.217369 -0.734767 -0.094083 2 8
0.452223 -1.528640 0.252485 36 9
0.201212 -0.680152 -0.062055 13 10
0.454461 -1.536203 0.311400 26 11
0.200571 -0.677984 -0.037054 30 12
0.449443 -1.519240 0.365770 40 13
0.253572 -0.857143 -0.015602 16 14
0.454864 -1.537566 0.429640 25 15
0.263783 -0.891659 0.016231 36 1
0.261762 -0.884827 0.048358 22 3
0.448205 -1.515058 0.138229 6 5
0.451069 -1.524737 0.195235 33 7
0.234826 -0.793777 -0.101639 2 8
0.447180 -1.511592 0.249669 36 9
0.198951 -0.672510 -0.061358 13 10
0.454461 -1.536203 0.311400 25 11
0.202837 -0.685645 -0.037473 29 12
0.452759 -1.530452 0.368470 42 13
0.253005 -0.855225 -0.015568 16 14
0.455960 -1.541271 0.430675 23 15
0.256599 -0.889591 0.016161 33 1
0.257947 -0.894264 0.048777 22 3
0.435121 -1.508502 0.137357 6 5
0.441230 -1.529680 0.195478 31 7
0.195308 -0.677103 -0.086527 3 8
0.438523 -1.520295 0.250608 36 9
0.195473 -0.677677 -0.061706 13 10
0.442905 -1.535488 0.310637 26 11
0.198165 -0.687010 -0.037473 22 12
0.440711 -1.527881 0.367120 40 13
0.244961 -0.849242 -0.015428 17 14
0.440104 -1.525777 0.425499 23 15
0.253274 -0.878063 0.015951 39 1
0.261822 -0.907697 0.049510 21 3
0.436226 -1.512331 0.137706 6 5
0.439580 -1.523958 0.194747 33 7
0.215664 -0.747674 -0.095546 2 8
0.440165 -1.525989 0.251547 36 9
0.192160 -0.666191 -0.060660 14 10
0.440729 -1.527943 0.309111 24 11
0.198165 -0.687010 -0.037473 29 12
0.444492 -1.540988 0.370269 42 13
0.237202 -0.822343 -0.014939 22 14
0.441710 -1.531345 0.427051 22 15
0.249842 -0.889435 0.016126 34 1
0.252778 -0.899889 0.048986 19 3
0.427274 -1.521094 0.138229 7 5
0.424635 -1.511700 0.192797 37 7
0.228154 -0.812228 -0.103589 2 8
0.431639 -1.536632 0.252798 36 9
0.190199 -0.677107 -0.061532 13 10
0.429521 -1.529092 0.308729 22 11
0.193364 -0.688376 -0.037473 22 12
0.432142 -1.538425 0.368920 42 13
0.236863 -0.843231 -0.015288 17 14
0.428920 -1.526952 0.424981 23 15
0.251464 -0.895211 0.016231 33 1
0.251698 -0.896043 0.048777 18 3
0.430507 -1.532603 0.139275 7 5
0.426246 -1.517434 0.193529 38 7
0.224396 -0.798851 -0.101883 2 8
0.431639 -1.536632 0.252798 36 9
0.192354 -0.684780 -0.062229 13 10
0.431113 -1.534762 0.309874 23 11
0.189043 -0.672994 -0.036635 22 12
0.425818 -1.515911 0.363521 42 13
0.228210 -0.812428 -0.014730 23 14
0.430487 -1.532532 0.426534 24 15
0.247633 -0.904574 0.016370 34 1
0.247859 -0.905398 0.049196 10 3
0.419280 -1.531581 0.138926 9 5
0.418793 -1.529801 0.194747 35 7
0.228004 -0.832870 -0.106026 2 8
0.417787 -1.526124 0.250608 42 9
0.184652 -0.674510 -0.061183 13 10
0.421962 -1.541375 0.310637 25 11
0.188795 -0.689644 -0.037473 22 12
0.416784 -1.522461 0.364421 42 13
0.210145 -0.767634 -0.013892 37 14
0.419293 -1.531627 0.425499 23 15
0.246577 -0.900716 0.016301 36 1
0.248913 -0.909251 0.049405 8 3
0.413494 -1.510442 0.137009 9 5
0.418793 -1.529801 0.194747 33 7
0.236390 -0.863504 -0.109926 2 8
0.416743 -1.522313 0.249982 40 9
0.180969 -0.661059 -0.059963 14 10
0.418851 -1.530014 0.308347 24 11
0.193013 -0.705055 -0.038310 21 12
0.417813 -1.526220 0.365321 40 13
0.217009 -0.792708 -0.014346 25 14
0.417253 -1.524174 0.423428 23 15
0.238069 -0.894728 0.016161 33 1
0.400625 -1.505661 0.136312 9 5
0.406815 -1.528921 0.194260 35 7
0.218465 -0.821052 -0.104320 2 8
0.406855 -1.529074 0.250608 36 9
0.173160 -0.650784 -0.058917 14 10
0.407892 -1.532972 0.308347 25 11
0.183855 -0.690977 -0.037473 22 12
0.411391 -1.546120 0.369370 42 13
0.209788 -0.788443 -0.014241 35 14
0.407825 -1.532721 0.424981 22 15
0.237040 -0.890863 0.016091 34 1
0.403699 -1.517213 0.137357 10 5
0.402731 -1.513575 0.192310 37 7
0.209788 -0.788440 -0.100177 2 8
0.408887 -1.536710 0.251859 42 9
0.172648 -0.648859 -0.058743 14 10
0.405873 -1.525383 0.306821 23 11
0.179746 -0.675536 -0.036635 22 12
0.408885 -1.536704 0.367120 42 13
0.208246 -0.782645 -0.014136 25 14
0.408819 -1.536455 0.426016 22 15
0.235639 -0.909838 0.016405 28 1
0.391130 -1.510213 0.136486 12 5
0.393181 -1.518134 0.192554 40 7
0.210526 -0.812874 -0.103101 2 8
0.397695 -1.535564 0.251234 36 9
0.171837 -0.663491 -0.059963 14 10
0.398701 -1.539444 0.309111 27 11
0.179268 -0.692181 -0.037473 29 12
0.396730 -1.531836 0.365321 42 13
0.202048 -0.780138 -0.014067 42 14
0.400073 -1.544743 0.427569 24 15
0.237143 -0.915645 0.016510 34 1
0.450173 -1.738187 0.094100 96 3
0.392629 -1.516000 0.137009 12 5
0.395172 -1.525821 0.193529 38 7
0.212517 -0.820561 -0.104076 2 8
0.395714 -1.527915 0.249982 42 9
0.167841 -0.648061 -0.058569 14 10
0.398208 -1.537544 0.308729 21 11
0.176263 -0.680580 -0.036845 30 12
0.392821 -1.516744 0.361721 42 13
0.203051 -0.784009 -0.014136 30 14
0.398620 -1.539132 0.426016 22 15
0.230257 -0.915339 0.016475 28 1
0.439489 -1.747098 0.094414 94 3
0.379119 -1.507111 0.135963 13 5
0.386448 -1.536243 0.194503 37 7
0.164168 -0.652614 -0.082627 3 8
0.384075 -1.526808 0.249357 38 9
0.157966 -0.627963 -0.056651 15 10
0.386986 -1.538382 0.308347 24 11
0.175406 -0.697290 -0.037682 29 12
0.386027 -1.534568 0.365321 42 13
0.201475 -0.800922 -0.014416 35 14
0.386923 -1.538131 0.424981 23 15
0.227330 -0.903704 0.016266 33 1
0.439489 -1.747098 0.094414 95 3
0.380578 -1.512907 0.136486 13 5
0.386448 -1.536243 0.194503 37 7
0.138017 -0.548658 -0.069466 4 8
0.386966 -1.538303 0.251234 42 9
0.164285 -0.653081 -0.058917 14 10
0.385070 -1.530766 0.306821 23 11
0.170533 -0.677920 -0.036635 30 12
0.387928 -1.542128 0.367120 40 13
0.200499 -0.797043 -0.014346 35 14
0.385038 -1.530637 0.422910 22 15
0.224336 -0.918867 0.016510 31 1
0.422544 -1.730721 0.093367 58 3
0.369061 -1.511656 0.136137 13 5
0.371476 -1.521547 0.192310 35 7
0.374343 -1.533291 0.249982 38 9
0.161612 -0.661954 -0.059615 14 10
0.374374 -1.533417 0.306821 24 11
0.164375 -0.673274 -0.036321 30 12
0.376228 -1.541012 0.366220 40 13
0.200147 -0.819793 -0.014730 42 14
0.375259 -1.537041 0.423946 22 15
0.225284 -0.922752 0.016580 30 1
0.363863 -1.490365 0.134220 8 5
0.369593 -1.513834 0.191335 32 7
0.375749 -1.539048 0.250921 45 9
0.162557 -0.665826 -0.059963 14 10
0.374374 -1.533417 0.306821 23 11
0.166270 -0.681035 -0.036740 30 12
0.375304 -1.537226 0.365321 42 13
0.204890 -0.839219 -0.015079 40 14
0.377091 -1.544548 0.426016 23 15
0.221601 -0.935978 0.016789 31 1
0.297255 -1.255520 0.067618 34 3
0.350695 -1.481236 0.133174 4 5
0.360845 -1.524104 0.192310 33 7
0.361809 -1.528178 0.248731 38 9
0.163413 -0.690210 -0.062055 13 10
0.365469 -1.543635 0.308347 25 11
0.161052 -0.680235 -0.036635 53 12
0.361869 -1.528431 0.362621 45 13
0.194419 -0.821170 -0.014730 42 14
0.365854 -1.545263 0.425499 23 15
0.218837 -0.924303 0.016580 30 1
0.295415 -1.247746 0.067199 39 3
0.341056 -1.440522 0.129513 6 5
0.361759 -1.527967 0.192797 33 7
0.362719 -1.532022 0.249357 49 9
0.158823 -0.670822 -0.060312 14 10
0.364564 -1.539815 0.307584 23 11
0.161972 -0.684123 -0.036845 100 12
0.362767 -1.532223 0.363521 45 13
0.193037 -0.815332 -0.014625 47 14
0.363629 -1.535864 0.422910 23 15
0.210750 -0.917975 0.016440 34 1
0.284233 -1.238048 0.066571 57 3
0.315193 -1.372903 0.123238 7 5
0.337136 -1.468482 0.184998 42 7
0.352283 -1.534456 0.249357 47 9
0.154253 -0.671887 -0.060312 14 10
0.352757 -1.536520 0.306439 22 11
0.154630 -0.673529 -0.036216 100 12
0.354073 -1.542254 0.365321 42 13
0.196432 -0.855607 -0.015323 34 14
0.352734 -1.536420 0.422393 23 15
0.213882 -0.931618 0.016685 27 1
0.285127 -1.241942 0.066781 72 3
0.308060 -1.341833 0.120449 7 5
0.319813 -1.393026 0.175492 41 7
0.352283 -1.534456 0.249357 42 9
0.156928 -0.683538 -0.061358 13 10
0.353196 -1.538434 0.306821 27 11
0.152395 -0.663796 -0.035693 100 12
0.352329 -1.534657 0.363521 45 13
0.195089 -0.849760 -0.015218 48 14
0.354463 -1.543952 0.424463 23 15
0.208241 -0.936992 0.016754 26 1
0.274283 -1.234153 0.066257 89 3
0.296524 -1.334226 0.119578 7 5
0.304482 -1.370033 0.172323 50 7
0.339848 -1.529164 0.248105 42 9
0.156907 -0.706012 -0.063275 13 10
0.342447 -1.540862 0.306821 25 11
0.150358 -0.676542 -0.036321 28 12
0.338225 -1.521861 0.359922 45 13
0.188718 -0.849149 -0.015184 39 14
0.343676 -1.546389 0.424463 23 15
0.211712 -0.952609 0.017034 25 1
0.276017 -1.241952 0.066676 100 3
0.290905 -1.308942 0.117312 9 5
0.307066 -1.381660 0.173786 52 7
0.338134 -1.521451 0.246854 40 9
0.153017 -0.688507 -0.061706 13 10
0.343299 -1.544695 0.307584 24 11
0.153391 -0.690190 -0.037054 100 12
0.339070 -1.525666 0.360821 45 13
0.190020 -0.855006 -0.015288 46 14
0.344095 -1.548274 0.424981 23 15
0.204636 -0.952109 0.016999 22 1
0.264402 -1.230180 0.065943 100 3
0.272549 -1.268087 0.113477 22 5
0.304087 -1.414823 0.177685 52 7
0.327504 -1.523775 0.246854 43 9
0.142345 -0.662288 -0.059266 14 10
0.332507 -1.547054 0.307584 25 11
0.151506 -0.704913 -0.037787 100 12
0.329230 -1.531806 0.361721 45 13
0.194551 -0.905188 -0.016161 29 14
0.330030 -1.535529 0.420840 23 15
0.202955 -0.944289 0.016859 23 1
0.266920 -1.241896 0.066571 90 3
0.296831 -1.381065 0.123587 5 5
0.308258 -1.434230 0.180123 52 7
0.327504 -1.523775 0.246854 40 9
0.141926 -0.660340 -0.059092 4 10
0.330032 -1.535537 0.305294 23 11
0.150667 -0.701007 -0.037577 95 12
0.331687 -1.543237 0.364421 45 13
0.194551 -0.905188 -0.016161 36 14
0.329218 -1.531752 0.419804 23 15
0.198391 -0.955472 0.017034 20 1
0.259867 -1.251552 0.066990 66 3
0.295688 -1.424070 0.127247 6 5
0.311959 -1.502431 0.188410 36 7
0.321275 -1.547299 0.250295 45 9
0.138933 -0.669118 -0.059789 4 10
0.318505 -1.533959 0.304531 23 11
0.144551 -0.696176 -0.037263 51 12
0.318528 -1.534067 0.361721 47 13
0.195138 -0.939809 -0.016754 32 14
0.320873 -1.545362 0.422910 23 15
0.200830 -0.967220 0.017243 11 1
0.258243 -1.243729 0.066571 53 3
0.295283 -1.422119 0.127073 6 5
0.318416 -1.533529 0.192310 45 7
0.316858 -1.526024 0.246854 38 9
0.136908 -0.659364 -0.058917 4 10
0.319304 -1.537804 0.305294 24 11
0.145363 -0.700087 -0.037473 29 12
0.316943 -1.526435 0.359922 45 13
0.196764 -0.947640 -0.016894 31 14
0.320087 -1.541579 0.421875 22 15
0.199746 -0.996014 0.017732 12 1
0.251342 -1.253291 0.066990 48 3
0.287555 -1.433864 0.127945 6 5
0.308361 -1.537608 0.192554 42 7
0.308405 -1.537829 0.248418 45 9
0.143778 -0.716932 -0.063972 4 10
0.311145 -1.551491 0.307584 24 11
0.141380 -0.704976 -0.037682 29 12
0.307312 -1.532378 0.360821 49 13
0.188737 -0.941115 -0.016754 32 14
0.310347 -1.547510 0.422910 22 15
0.219013 -1.092086 0.019442 20 1
0.251342 -1.253291 0.066990 33 3
0.302051 -1.506143 0.134394 6 5
0.310312 -1.547339 0.193772 43 7
0.304909 -1.520398 0.245602 38 9
0.121055 -0.603629 -0.053862 5 10
0.309601 -1.543791 0.306058 24 11
0.142165 -0.708893 -0.037891 29 12
0.306546 -1.528557 0.359922 47 13
0.189523 -0.945036 -0.016824 31 14
0.309587 -1.543722 0.421875 22 15
0.272105 -1.407725 0.025027 34 1
0.312710 -1.617793 0.086354 37 3
0.293041 -1.516040 0.135091 13 5
0.296489 -1.533876 0.191822 43 7
0.296912 -1.536066 0.247792 45 9
0.109276 -0.565336 -0.050376 5 10
0.297326 -1.538205 0.304531 23 11
0.134181 -0.694180 -0.037054 30 12
0.297716 -1.540226 0.362171 47 13
0.185578 -0.960080 -0.017068 27 14
0.298069 -1.542052 0.420840 22 15
0.336589 -1.741334 0.092949 28 3
0.294176 -1.521909 0.135614 15 5
0.295735 -1.529978 0.191335 43 7
0.295787 -1.530247 0.246854 49 9
0.103226 -0.534037 -0.047587 6 10
0.297326 -1.538205 0.304531 24 11
0.133044 -0.688298 -0.036740 30 12
0.296607 -1.534486 0.360821 45 13
0.183680 -0.950263 -0.016894 28 14
0.298069 -1.542052 0.420840 23 15
0.324667 -1.741565 0.092844 23 3
0.284440 -1.525785 0.135789 15 5
0.285582 -1.531905 0.191335 43 7
0.286356 -1.536059 0.247479 47 9
0.288556 -1.547863 0.306058 25 11
0.129208 -0.693092 -0.036949 30 12
0.284280 -1.524925 0.358122 45 13
0.178839 -0.959324 -0.017034 27 14
0.288897 -1.549692 0.422393 23 15
0.328361 -1.761382 0.031275 80 1
0.326131 -1.749418 0.093263 99 3
0.283345 -1.519909 0.135266 16 5
0.287037 -1.539711 0.192310 45 7
0.284908 -1.528292 0.246228 42 9
0.098221 -0.526876 -0.046890 6 10
0.288556 -1.547863 0.306058 27 11
0.129940 -0.697019 -0.037159 30 12
0.285709 -1.532588 0.359922 45 13
0.176641 -0.947529 -0.016824 28 14
0.288189 -1.545894 0.421357 23 15
0.316409 -1.765599 0.031310 87 1
0.315319 -1.759516 0.093681 100 3
0.270267 -1.508122 0.134046 17 5
0.276280 -1.541678 0.192310 43 7
0.274231 -1.530244 0.246228 49 9
0.094541 -0.527548 -0.046890 6 10
0.277051 -1.545975 0.305294 25 11
0.124718 -0.695943 -0.037054 30 12
0.275002 -1.534546 0.359922 45 13
0.170021 -0.948739 -0.016824 25 14
0.276708 -1.544065 0.420322 23 15
0.314293 -1.753789 0.031100 97 1
0.312148 -1.741823 0.092739 77 3
0.271321 -1.514005 0.134568 16 5
0.276280 -1.541678 0.192310 45 7
0.274231 -1.530244 0.246228 43 9
0.093838 -0.523626 -0.046541 6 10
0.275665 -1.538245 0.303768 25 11
0.125423 -0.699875 -0.037263 29 12
0.276377 -1.542218 0.361721 45 13
0.171432 -0.956612 -0.016964 27 14
0.276708 -1.544065 0.420322 23 15
0.300685 -1.748058 0.030961 100 1
0.300996 -1.749865 0.093053 84 3
0.260070 -1.511935 0.134220 17 5
0.264838 -1.539656 0.191822 45 7
0.264211 -1.536014 0.246854 47 9
0.092544 -0.538013 -0.047761 6 10
0.265585 -1.544002 0.304531 26 11
0.117825 -0.684986 -0.036426 30 12
0.265934 -1.546031 0.362171 47 13
0.166106 -0.965669 -0.017103 24 14
0.266905 -1.551671 0.421875 22 15
0.301024 -1.750028 0.030995 100 1
0.299980 -1.743960 0.092739 92 3
0.263109 -1.529607 0.135789 18 5
0.263155 -1.529874 0.190604 48 7
0.264211 -1.536014 0.246854 49 9
0.091193 -0.530159 -0.047064 6 10
0.266251 -1.547871 0.305294 25 11
0.117825 -0.684986 -0.036426 30 12
0.262961 -1.528746 0.358122 47 13
0.166445 -0.967640 -0.017138 23 14
0.267232 -1.553575 0.422393 23 15
0.290082 -1.757956 0.031100 100 1
0.287453 -1.742020 0.092530 87 3
0.251070 -1.521534 0.134917 16 5
0.253382 -1.535547 0.191091 48 7
0.252785 -1.531930 0.245915 52 9
0.084014 -0.509144 -0.045147 6 10
0.255709 -1.549648 0.305294 27 11
0.112510 -0.681831 -0.036216 31 12
0.253184 -1.534346 0.359022 45 13
0.158552 -0.960858 -0.016999 21 14
0.256022 -1.551546 0.421357 24 15
0.289431 -1.754010 0.031030 96 1
0.289404 -1.753844 0.093158 92 3
0.250421 -1.517602 0.134568 17 5
0.254998 -1.545340 0.192310 47 7
0.252785 -1.531930 0.245915 52 9
0.088880 -0.538631 -0.047761 6 10
0.255070 -1.545774 0.304531 26 11
0.113160 -0.685773 -0.036426 30 12
0.253819 -1.538191 0.359922 47 13
0.157901 -0.956912 -0.016929 18 14
0.255393 -1.547734 0.420322 23 15
0.274684 -1.740186 0.030751 46 1
0.277464 -1.757794 0.093263 84 3
0.240442 -1.523250 0.134917 16 5
0.243585 -1.543161 0.191822 46 7
0.241776 -1.531706 0.245602 49 9
0.086049 -0.545142 -0.048284 18 10
0.243660 -1.543638 0.303768 26 11
0.107436 -0.680627 -0.036112 31 12
0.244289 -1.547626 0.361721 47 13
0.149034 -0.944164 -0.016685 22 14
0.243979 -1.545663 0.419287 23 15
0.278426 -1.763889 0.031170 65 1
0.277152 -1.755821 0.093158 87 3
0.240442 -1.523250 0.134917 16 5
0.242037 -1.533357 0.190604 50 7
0.242392 -1.535609 0.246228 54 9
0.086981 -0.551046 -0.048807 18 10
0.243048 -1.539760 0.303005 28 11
0.105878 -0.670763 -0.035588 31 12
0.243378 -1.541851 0.360372 52 13
0.150281 -0.952065 -0.016824 18 14
0.245184 -1.553295 0.421357 23 15
0.266105 -1.765790 0.031170 97 1
0.263995 -1.751788 0.092844 99 3
0.231286 -1.534742 0.135789 18 5
0.230735 -1.531084 0.190116 48 7
0.231960 -1.539217 0.246541 52 9
