0.637528 5.245214 0.462274 38 5
0.546519 4.496448 -0.717408 52 6
0.636869 5.239798 0.648101 37 7
0.545854 4.490974 -0.555480 52 8
0.637327 5.243567 0.836612 30 9
0.543533 4.471882 -0.394118 55 10
0.639338 5.260112 1.029987 32 11
0.545344 4.486777 -0.236873 57 12
0.636963 5.240570 1.218785 40 13
0.636338 5.235425 1.413152 60 15
0.361757 2.976330 -0.803374 4 0
0.527430 4.339399 0.076302 4 1
0.422526 3.476302 -0.808474 6 2
0.528716 4.349973 0.229650 4 3
0.502185 4.131692 -0.809030 9 4
0.636806 5.239281 0.461751 64 5
0.546519 4.496448 -0.717408 52 6
0.638067 5.249651 0.649320 74 7
0.546333 4.494915 -0.555968 50 8
0.640187 5.267099 0.840366 100 9
0.544495 4.479794 -0.394816 53 10
0.636733 5.238674 1.025789 67 11
0.545825 4.490743 -0.237082 57 12
0.640490 5.269587 1.225533 97 13
0.446120 3.670424 -0.064539 5 14
0.636804 5.239261 1.414187 85 15
0.382254 2.975714 -0.803892 4 0
0.557465 4.339674 0.076372 4 1
0.445682 3.469480 -0.807574 7 2
0.557804 4.342311 0.229441 2 3
0.527545 4.106759 -0.804832 6 4
0.673977 5.246682 0.462797 75 5
0.577616 4.496542 -0.718034 52 6
0.672267 5.233373 0.647857 92 7
0.573628 4.465497 -0.552799 20 8
0.674514 5.250864 0.838489 67 9
0.575990 4.483888 -0.395513 53 10
0.672876 5.238113 1.026552 70 11
0.575362 4.478999 -0.236663 59 12
0.675847 5.261239 1.224633 100 13
0.467017 3.635568 -0.063981 5 14
0.672944 5.238637 1.415223 87 15
0.381761 2.971882 -0.802857 3 0
0.467527 3.639535 0.064050 1 1
0.444688 3.461749 -0.805775 9 2
0.555768 4.326464 0.228603 2 3
0.520791 4.054183 -0.794529 9 4
0.673216 5.240754 0.462274 20 5
0.576861 4.490664 -0.717096 27 6
0.668979 5.207777 0.644689 19 7
0.476759 3.711403 -0.459447 7 8
0.576498 4.487840 -0.395861 52 10
0.668874 5.206957 1.020447 19 11
0.576380 4.486923 -0.237082 54 12
0.669888 5.214850 1.213836 23 13
0.460138 3.582017 -0.063038 7 14
0.669005 5.207979 1.406940 22 15
0.402238 2.963331 -0.801304 3 0
0.491407 3.620244 0.063771 5 1
0.473642 3.489374 -0.812973 9 2
0.588325 4.334250 0.229231 2 3
0.504897 3.719632 -0.729654 13 4
0.698105 5.143011 0.454081 15 5
0.504826 3.719110 -0.594451 13 6
0.696349 5.130076 0.635670 17 7
0.507042 3.735435 -0.462860 16 8
0.658666 4.852460 0.775602 11 9
0.505422 3.723500 -0.328751 10 10
0.695554 5.124221 1.005182 19 11
0.696965 5.134614 1.196290 21 13
0.477151 3.515224 -0.061921 8 14
0.696381 5.130315 1.387270 24 15
0.399900 2.946103 -0.796645 3 0
0.486296 3.582595 0.063108 5 1
0.474167 3.493237 -0.813873 9 2
0.588862 4.338209 0.229441 2 3
0.499616 3.680723 -0.722021 13 4
0.685777 5.052194 0.446063 17 5
0.499512 3.679961 -0.588194 13 6
0.686203 5.055327 0.626408 17 7
0.500367 3.686258 -0.456766 14 8
0.659463 4.858332 0.776541 50 9
0.498187 3.670195 -0.324045 15 10
0.682351 5.026950 0.986101 17 11
0.502628 3.702914 -0.195841 16 12
0.685170 5.047717 1.176044 21 13
0.473655 3.489464 -0.061467 10 14
0.683389 5.034601 1.361388 22 15
0.422399 2.960525 -0.801304 3 0
0.508129 3.561386 0.062794 1 1
0.497933 3.489928 -0.813873 9 2
0.617531 4.328168 0.229127 1 3
0.519389 3.640310 -0.714770 15 4
0.710864 4.982319 0.440311 15 5
0.517016 3.623676 -0.579746 16 6
0.709101 4.969967 0.616415 19 7
0.519559 3.641498 -0.451648 13 8
0.693912 4.863509 0.778105 45 9
0.509086 3.568098 -0.315329 5 10
0.696309 4.880308 0.958243 27 11
0.522179 3.659863 -0.193748 16 12
0.702447 4.923326 1.148150 21 13
0.490334 3.436668 -0.060595 11 14
0.699360 4.901696 1.326706 26 15
0.420762 2.949050 -0.798198 3 0
0.507564 3.557426 0.062724 1 1
0.496282 3.478353 -0.811173 9 2
0.558571 3.914926 0.207250 1 3
0.512179 3.589777 -0.704848 15 4
0.510320 3.576742 -0.572237 16 6
0.688913 4.828474 0.598866 22 7
0.512269 3.590403 -0.445311 13 8
0.695028 4.871331 0.779356 52 9
0.511056 3.581905 -0.316550 9 10
0.698527 4.895857 0.961296 24 11
0.514280 3.604500 -0.190817 16 12
0.698593 4.896317 1.141852 44 13
0.485815 3.404994 -0.060036 11 14
0.695813 4.876833 1.319977 45 15
0.443344 2.959414 -0.801821 3 0
0.530017 3.537975 0.062445 5 1
0.519687 3.469022 -0.809824 9 2
0.578195 3.859576 0.204529 1 3
0.527920 3.523983 -0.692637 15 4
0.528546 3.528160 -0.565041 17 6
0.719664 4.803914 0.596429 27 7
0.527911 3.523917 -0.437511 15 8
0.724629 4.837056 0.774664 26 9
0.529261 3.532930 -0.312541 6 10
0.725709 4.844263 0.952137 20 11
0.531146 3.545516 -0.187886 19 12
0.725252 4.841213 1.130154 21 13
0.503649 3.361966 -0.059338 11 14
0.726694 4.850841 1.314283 21 15
0.443344 2.959414 -0.801821 3 0
0.532090 3.551818 0.062689 5 1
0.513624 3.428550 -0.800376 12 2
0.535881 3.577119 0.189561 1 3
0.521231 3.479326 -0.683859 15 4
0.537821 3.590072 0.317596 5 5
0.522400 3.487134 -0.558471 18 6
0.522617 3.488580 -0.433124 19 8
0.717020 4.786263 0.766529 19 9
0.522767 3.489582 -0.308706 27 10
0.715819 4.778249 0.939162 24 11
0.525820 3.509962 -0.186002 15 12
0.714858 4.771832 1.113958 20 13
0.494169 3.298682 -0.058221 15 14
0.715532 4.776330 1.294095 23 15
0.462795 2.948613 -0.799751 4 0
0.553153 3.524311 0.062270 5 1
0.528180 3.365200 -0.786429 48 2
0.559602 3.565399 0.189142 11 3
0.527548 3.361171 -0.661344 37 4
0.528967 3.370216 -0.540325 30 6
0.562349 3.582901 0.445311 13 7
0.528183 3.365220 -0.418256 20 8
0.742453 4.730402 0.758394 50 9
0.529507 3.373654 -0.298770 16 10
0.741854 4.726587 0.930003 60 11
0.540401 3.443066 -0.182652 15 12
0.743017 4.733997 1.106309 52 13
0.517496 3.297127 -0.058256 46 14
0.736278 4.691062 1.272354 56 15
0.477772 3.044038 -0.825633 12 0
0.551603 3.514434 0.062096 5 1
0.528784 3.369051 -0.787329 63 2
0.558053 3.555533 0.188619 15 3
0.527548 3.361171 -0.661344 57 4
0.554530 3.533086 0.312889 15 5
0.524985 3.344847 -0.536257 59 6
0.556500 3.545640 0.440680 12 7
0.526336 3.353454 -0.416793 51 8
0.743984 4.740160 0.759959 66 9
0.524564 3.342161 -0.295981 63 10
0.741854 4.726587 0.930003 68 11
0.526156 3.352304 -0.177838 66 12
0.744830 4.745548 1.109009 70 13
0.518116 3.301078 -0.058326 46 14
0.740772 4.719689 1.280119 71 15
0.499950 3.046347 -0.827186 17 0
0.575477 3.506550 0.062026 5 1
0.552607 3.367200 -0.787779 67 2
0.575422 3.506220 0.186211 15 3
0.551954 3.363219 -0.662489 54 4
0.575955 3.509468 0.311146 16 5
0.548644 3.343050 -0.536570 58 6
0.577061 3.516203 0.437511 13 7
0.550056 3.351657 -0.417037 50 8
0.776739 4.732901 0.759646 60 9
0.548206 3.340384 -0.296155 68 10
0.775469 4.725167 0.930766 68 11
0.547282 3.334752 -0.177105 67 12
0.776364 4.730618 1.106759 70 13
0.544711 3.319087 -0.058710 48 14
0.776832 4.733467 1.285295 78 15
0.496196 3.023471 -0.820974 9 0
0.575477 3.506550 0.062026 5 1
0.553554 3.372969 -0.789128 75 2
0.570894 3.478627 0.184746 15 3
0.552908 3.369030 -0.663634 65 4
0.573374 3.493739 0.309752 15 5
0.549923 3.350847 -0.537822 58 6
0.574167 3.498573 0.435317 15 7
0.549092 3.345780 -0.416306 54 8
0.779618 4.750445 0.762462 58 9
0.549174 3.346282 -0.296678 64 10
0.777377 4.736791 0.933056 68 11
0.547605 3.336723 -0.177210 68 12
0.775733 4.726771 1.105859 66 13
0.544063 3.315140 -0.058640 48 14
0.777457 4.737279 1.286331 78 15
0.517166 3.016035 -0.819939 10 0
0.598526 3.490517 0.061816 5 1
0.578993 3.376604 -0.790928 75 2
0.594084 3.464611 0.184223 15 3
0.573020 3.341768 -0.659054 51 4
0.595666 3.473837 0.308357 15 5
0.576224 3.360455 -0.540012 60 6
0.597510 3.484592 0.434099 13 7
0.574026 3.347635 -0.417037 52 8
0.811254 4.731116 0.760272 63 9
0.573105 3.342267 -0.296678 68 10
0.813244 4.742717 0.935346 66 11
0.572143 3.336656 -0.177419 64 12
0.811184 4.730703 1.108109 74 13
0.568448 3.315104 -0.058710 46 14
0.811989 4.735403 1.287366 75 15
0.514227 2.998898 -0.815280 10 0
0.595147 3.470808 0.061467 5 1
0.580969 3.388129 -0.793627 75 2
0.592396 3.454768 0.183699 15 3
0.575011 3.353378 -0.661344 54 4
0.587921 3.428671 0.304348 13 5
0.576558 3.362402 -0.540325 64 6
0.594491 3.466984 0.431905 13 7
0.575368 3.355461 -0.418012 52 8
0.812923 4.740850 0.761836 66 9
0.572432 3.338340 -0.296330 68 10
0.813907 4.746588 0.936109 66 11
0.573494 3.344530 -0.177838 64 12
0.811513 4.732624 1.108559 66 13
0.568448 3.315104 -0.058710 48 14
0.810683 4.727787 1.285295 80 15
0.538023 3.014346 -0.820456 10 0
0.616650 3.454865 0.061258 5 1
0.602991 3.378340 -0.792278 67 2
0.612389 3.430994 0.182652 13 3
0.599893 3.360982 -0.663634 54 4
0.609495 3.414783 0.303476 16 5
0.597349 3.346731 -0.538447 56 6
0.611100 3.423772 0.427030 13 7
0.598892 3.355375 -0.418499 50 8
0.846563 4.742985 0.763087 66 9
0.597242 3.346134 -0.297375 71 10
0.844817 4.733206 0.934582 68 11
0.596246 3.340549 -0.177838 70 12
0.844050 4.728909 1.109009 64 13
0.593108 3.322969 -0.058919 47 14
0.844203 4.729766 1.287366 75 15
0.540059 3.025757 -0.823562 10 0
0.615595 3.448959 0.061153 5 1
0.601621 3.370666 -0.790478 67 2
0.608879 3.411332 0.181606 15 3
0.600928 3.366781 -0.664779 55 4
0.606345 3.397130 0.301907 16 5
0.598737 3.354510 -0.539699 60 6
0.607612 3.404230 0.424593 15 7
0.600985 3.367100 -0.419962 48 8
0.848645 4.754653 0.764965 65 9
0.596542 3.342211 -0.297027 67 10
0.846197 4.740937 0.936109 64 11
0.595544 3.336617 -0.177628 64 12
0.844393 4.730827 1.109459 66 13
0.593811 3.326907 -0.058989 50 14
0.845900 4.739275 1.289954 83 15
0.559759 3.014316 -0.821492 10 0
0.637468 3.432781 0.060944 5 1
0.626561 3.374048 -0.792278 70 2
0.626116 3.371652 0.179722 15 3
0.623342 3.356713 -0.663634 50 4
0.628591 3.384979 0.301210 17 5
0.623584 3.358017 -0.540950 60 6
0.628826 3.386244 0.422887 13 7
0.622302 3.351113 -0.418499 50 8
0.881818 4.748613 0.764965 63 9
0.623498 3.357554 -0.298770 68 10
0.879991 4.738775 0.936872 68 11
0.620282 3.340233 -0.178047 67 12
0.877755 4.726733 1.109908 62 13
0.618483 3.330545 -0.059129 48 14
0.881435 4.746550 1.293578 80 15
0.560111 3.016215 -0.822009 11 0
0.637468 3.432781 0.060944 5 1
0.628696 3.385544 -0.794977 70 2
0.622834 3.353978 0.178780 13 3
0.624059 3.360573 -0.664397 54 4
0.623498 3.357554 0.298770 18 5
0.625748 3.369670 -0.542828 60 6
0.626289 3.372581 0.421180 13 7
0.623027 3.355016 -0.418987 49 8
0.881097 4.744729 0.764339 61 9
0.622043 3.349719 -0.298073 68 10
0.883575 4.758077 0.940688 66 11
0.622470 3.352015 -0.178675 59 12
0.879534 4.736313 1.112158 70 13
0.617022 3.322680 -0.058989 47 14
0.882140 4.750349 1.294613 80 15
0.579898 3.008538 -0.820974 11 0
0.659684 3.422472 0.060839 1 1
0.653570 3.390754 -0.797226 65 2
0.644515 3.343778 0.178466 15 3
0.647290 3.358175 -0.664779 57 4
0.642567 3.333669 0.297027 20 5
0.647175 3.357574 -0.541576 61 6
0.646976 3.356545 0.419718 12 7
0.648103 3.362393 -0.420449 48 8
0.915616 4.750259 0.766216 58 9
0.644829 3.345407 -0.298073 71 10
0.916685 4.755808 0.941452 66 11
0.647161 3.357506 -0.179198 64 12
0.914703 4.745524 1.115757 72 13
0.641138 3.326257 -0.059129 47 14
0.912260 4.732852 1.291507 78 15
0.582092 3.019920 -0.824080 10 0
0.661576 3.432289 0.061014 1 1
0.651726 3.381186 -0.794977 57 2
0.647918 3.361428 0.179408 31 3
0.648405 3.363958 -0.665923 54 4
0.641059 3.325843 0.296330 37 5
0.647175 3.357574 -0.541576 55 6
0.666889 3.459853 0.432636 19 7
0.649606 3.370189 -0.421424 49 8
0.915990 4.752199 0.766529 63 9
0.644829 3.345407 -0.298073 67 10
0.914456 4.744242 0.939162 68 11
0.647161 3.357506 -0.179198 61 12
0.915441 4.749352 1.116657 72 13
0.641895 3.330184 -0.059199 45 14
0.912992 4.736646 1.292542 75 15
0.602928 3.011889 -0.823045 11 0
0.674737 3.370604 0.060001 1 1
0.674374 3.368793 -0.793177 51 2
0.668034 3.337122 0.178361 25 3
0.674387 3.368858 -0.667831 57 4
0.668752 3.340707 0.298073 41 5
0.671960 3.356731 -0.542202 56 6
0.721633 3.604871 0.451404 17 7
0.673706 3.365455 -0.421424 48 8
0.953462 4.762956 0.769345 89 9
0.671098 3.352429 -0.299118 64 10
0.950693 4.749127 0.941452 68 11
0.670386 3.348872 -0.178989 64 12
0.953993 4.765609 1.122056 100 13
0.666494 3.329427 -0.059268 45 14
0.948759 4.739463 1.295130 83 15
0.604445 3.019466 -0.825115 11 0
0.678270 3.388252 0.060316 5 1
0.674757 3.370704 -0.793627 42 2
0.667250 3.333205 0.178152 23 3
0.674002 3.366933 -0.667450 54 4
0.670707 3.350475 0.298944 28 5
0.672735 3.360605 -0.542828 60 6
0.720854 3.600978 0.450917 20 7
0.672537 3.359615 -0.420693 47 8
0.951523 4.753271 0.767780 86 9
0.673445 3.364151 -0.300164 61 10
0.950693 4.749127 0.941452 71 11
0.671171 3.352789 -0.179198 61 12
0.948638 4.738858 1.115757 100 13
0.667279 3.333349 -0.059338 47 14
0.950655 4.748934 1.297719 87 15
0.622763 3.001932 -0.821492 9 0
0.701907 3.383434 0.060316 5 1
0.701043 3.379268 -0.796777 34 2
0.694561 3.348022 0.179198 22 3
0.695896 3.354456 -0.665923 51 4
0.694082 3.345711 0.298944 23 5
0.699390 3.371300 -0.545331 58 6
0.743153 3.582252 0.449210 24 7
0.697185 3.360669 -0.421424 49 8
0.979467 4.721367 0.763713 17 9
0.697724 3.363269 -0.300513 64 10
0.979438 4.721229 0.937254 18 11
0.696995 3.359756 -0.179826 61 12
0.983677 4.741660 1.118007 20 13
0.688909 3.320778 -0.059199 46 14
0.984570 4.745965 1.298754 85 15
0.616484 2.971666 -0.813209 9 0
0.702313 3.385392 0.060350 5 1
0.703814 3.392624 -0.799926 31 2
0.695778 3.353889 0.179512 23 3
0.697890 3.364068 -0.667831 57 4
0.694891 3.349613 0.299293 23 5
0.698588 3.367432 -0.544705 58 6
0.739524 3.564759 0.447017 19 7
0.699604 3.372332 -0.422887 48 8
0.967429 4.663342 0.754327 14 9
0.695296 3.351564 -0.299467 63 10
0.968272 4.667404 0.926568 18 11
0.700241 3.375400 -0.180664 60 12
0.971801 4.684417 1.104510 16 13
0.690534 3.328610 -0.059338 46 14
0.971620 4.683543 1.281672 35 15
0.637913 2.973068 -0.814762 9 0
0.720726 3.359026 0.059966 5 1
0.726890 3.387755 -0.799926 30 2
0.720267 3.356886 0.179931 16 3
0.722419 3.366918 -0.669358 58 4
0.719765 3.354546 0.300164 20 5
0.722321 3.366462 -0.545331 60 6
0.760856 3.546056 0.445311 17 7
0.724208 3.375255 -0.423862 49 8
1.000392 4.662443 0.755266 50 9
0.722273 3.366234 -0.301210 67 10
0.997136 4.647268 0.923897 52 11
0.720686 3.358839 -0.180036 61 12
0.716531 3.339474 -0.059617 43 14
0.987671 4.603156 1.261484 16 15
0.643993 3.001401 -0.822527 9 0
0.720726 3.359026 0.059966 5 1
0.725255 3.380134 -0.798126 23 2
0.721943 3.364698 0.180350 16 3
0.725714 3.382274 -0.672411 55 4
0.721855 3.364286 0.301036 18 5
0.723150 3.370324 -0.545956 55 6
0.755442 3.520824 0.442142 19 7
0.722126 3.365551 -0.422643 45 8
1.002050 4.670168 0.756517 55 9
0.723109 3.370130 -0.301559 64 10
0.995901 4.641509 0.922752 45 11
0.720686 3.358839 -0.180036 61 12
1.001620 4.668167 1.102260 46 13
0.717370 3.343384 -0.059687 43 14
0.979566 4.565378 1.251131 17 15
0.664930 2.996832 -0.822527 9 0
0.745458 3.359769 0.060071 11 1
0.754322 3.399720 -0.803975 22 2
0.747146 3.367375 0.180768 16 3
0.749309 3.377125 -0.672411 58 4
0.747482 3.368890 0.301907 20 5
0.748373 3.372907 -0.547208 58 6
0.777853 3.505774 0.440923 20 7
0.745174 3.358489 -0.422399 48 8
1.025216 4.620633 0.749634 24 9
0.748345 3.372780 -0.302256 63 10
1.024027 4.615277 0.918936 25 11
0.745848 3.361525 -0.180454 60 12
1.022366 4.607791 1.089663 22 13
0.741560 3.342199 -0.059757 42 14
1.003045 4.520709 1.240779 17 15
0.662420 2.985516 -0.819421 10 0
0.746324 3.363673 0.060141 4 1
0.756433 3.409233 -0.806225 16 2
0.748876 3.375174 0.181187 17 3
0.747183 3.367542 -0.670503 54 4
0.748345 3.372780 0.302256 16 5
0.750085 3.380621 -0.548459 62 6
0.776564 3.499961 0.440192 22 7
0.747754 3.370117 -0.423862 50 8
1.024788 4.618704 0.749321 87 9
0.748345 3.372780 -0.302256 57 10
1.021476 4.603777 0.916646 55 11
0.747578 3.369325 -0.180873 59 12
1.020678 4.600181 1.087863 54 13
0.739827 3.334390 -0.059617 43 14
0.991328 4.467901 1.226285 17 15
0.684541 2.986468 -0.820974 11 0
0.768002 3.350585 0.060001 5 1
0.785440 3.426662 -0.811623 13 2
0.776883 3.389332 0.182234 17 3
0.771990 3.367985 -0.671648 55 4
0.771428 3.365531 0.302082 20 5
0.774550 3.379153 -0.549085 62 6
0.800092 3.490584 0.439705 22 7
0.771264 3.364815 -0.423862 50 8
1.043326 4.551749 0.739622 26 9
0.772763 3.371357 -0.302605 59 10
1.047450 4.569743 0.911304 28 11
0.774652 3.379597 -0.181710 57 12
1.046673 4.566350 1.081565 24 13
0.763981 3.333042 -0.059687 43 14
1.009547 4.404381 1.210755 16 15
0.683246 2.980819 -0.819421 10 0
0.771129 3.364228 0.060246 4 1
0.785440 3.426662 -0.811623 13 2
0.779561 3.401012 0.182862 21 3
0.776376 3.387121 -0.675464 57 4
0.773654 3.375242 0.302953 27 5
0.773668 3.375303 -0.548459 58 6
0.793883 3.463495 0.436292 23 7
0.774812 3.380294 -0.425811 50 8
1.036706 4.522867 0.734929 24 9
0.773654 3.375242 -0.302953 61 10
1.032098 4.502766 0.897947 28 11
0.773760 3.375704 -0.181501 57 12
1.037094 4.524562 1.071667 22 13
0.766661 3.344737 -0.059897 43 14
0.998757 4.357305 1.197814 15 15
0.707597 2.991016 -0.823562 10 0
0.800121 3.382115 0.060665 4 1
0.810241 3.424888 -0.812523 11 2
0.803285 3.395487 0.182862 22 3
0.800908 3.385439 -0.676227 57 4
0.801326 3.387208 0.304522 31 5
0.798122 3.373664 -0.549085 61 6
0.810731 3.426960 0.432392 23 7
0.798391 3.374802 -0.425811 50 8
1.057341 4.469384 0.727420 26 9
0.799950 3.381391 -0.303999 59 10
1.053565 4.453420 0.889552 27 11
0.796388 3.366333 -0.181292 59 12
1.057889 4.471698 1.060869 22 13
0.794597 3.358763 -0.060246 45 14
1.014920 4.290068 1.181250 18 15
0.708932 2.996655 -0.825115 10 0
0.807487 3.413250 0.061223 5 1
0.811138 3.428681 -0.813423 12 2
0.803285 3.395487 0.182862 21 3
0.799552 3.379708 -0.675082 54 4
0.804078 3.398841 0.305568 21 5
0.800851 3.385198 -0.550962 62 6
0.806618 3.409574 0.430199 24 7
0.795192 3.361280 -0.424105 47 8
1.044608 4.415558 0.718660 28 9
0.801785 3.389147 -0.304696 57 10
1.043621 4.411388 0.881156 26 11
0.799147 3.377994 -0.181920 57 12
1.044878 4.416703 1.047822 24 13
0.793676 3.354871 -0.060176 45 14
1.012251 4.278788 1.178144 19 15
0.727150 2.978369 -0.821492 10 0
0.838531 3.434582 0.061712 4 1
0.838887 3.436041 -0.816572 12 2
0.828983 3.395473 0.183176 21 3
0.824182 3.375807 -0.675464 55 4
0.830269 3.400743 0.306265 21 5
0.827865 3.390894 -0.552839 58 6
0.828641 3.394073 0.428980 5 7
0.823462 3.372860 -0.426299 49 8
1.065870 4.365753 0.711777 24 9
0.826016 3.383323 -0.304696 56 10
1.067711 4.373291 0.875050 26 11
0.825193 3.379950 -0.182338 56 12
1.065364 4.363678 1.037024 22 13
0.814817 3.337450 -0.059966 42 14
1.034596 4.237654 1.168827 16 15
0.723484 2.963355 -0.817351 9 0
0.842325 3.450123 0.061991 4 1
0.840274 3.441720 -0.817922 12 2
0.832299 3.409054 0.183909 17 3
0.825579 3.381529 -0.676609 54 4
0.828852 3.394936 0.305742 11 5
0.826928 3.387056 -0.552214 61 6
1.062167 4.350584 0.549874 27 7
0.823933 3.374788 -0.426543 48 8
1.057437 4.331210 0.706145 26 9
0.826016 3.383323 -0.304696 59 10
1.059330 4.338961 0.868181 29 11
0.827088 3.387712 -0.182757 57 12
1.057969 4.333387 1.029826 26 13
0.817663 3.349106 -0.060176 41 14
1.033680 4.233901 1.167792 15 15
0.744580 2.962109 -0.818386 10 0
0.866277 3.446249 0.062026 5 1
0.863681 3.435921 -0.817922 12 2
0.851927 3.389159 -0.679280 55 4
0.849964 3.381349 -0.552214 62 6
1.081109 4.300899 0.544512 29 7
0.851724 3.388354 -0.428980 58 8
1.076781 4.283681 0.699575 28 9
0.849027 3.377622 -0.304696 56 10
1.070652 4.259297 0.853679 29 11
0.850128 3.382004 -0.182757 56 12
1.076989 4.284507 1.019928 22 13
0.843365 3.355099 -0.060385 45 14
1.062004 4.224893 1.167274 18 15
0.749290 2.980844 -0.823562 10 0
0.873590 3.475340 0.062549 4 1
0.861306 3.426471 -0.815673 11 2
0.853363 3.394871 -0.680425 54 4
0.852853 3.392844 -0.554091 58 6
1.067559 4.246994 0.537688 27 7
0.849305 3.378728 -0.427761 50 8
1.067150 4.245366 0.693318 29 9
0.852427 3.391148 -0.305917 55 10
1.063951 4.232641 0.848337 29 11
0.851102 3.385877 -0.182967 55 12
1.069388 4.254268 1.012730 22 13
0.845315 3.362856 -0.060525 45 14
1.064358 4.234261 1.169862 36 15
0.769113 2.971801 -0.822527 10 0
0.901338 3.482708 0.062794 5 1
0.887647 3.429808 -0.817922 12 2
1.090396 4.213215 0.228080 26 3
0.878026 3.392632 -0.681188 54 4
1.089734 4.210658 0.380522 23 5
0.877508 3.390632 -0.554717 61 6
1.086738 4.199080 0.532569 29 7
0.871877 3.368873 -0.427274 52 8
1.084883 4.191915 0.685809 31 9
0.877079 3.388972 -0.306265 56 10
1.084620 4.190898 0.841468 26 11
0.875720 3.383720 -0.183176 55 12
1.085879 4.195761 1.000582 26 13
0.867769 3.353001 -0.060455 43 14
1.086632 4.198673 1.162097 45 15
0.768145 2.968060 -0.821492 10 0
0.911358 3.521426 0.063492 5 1
0.888135 3.431695 -0.818372 12 2
1.078386 4.166810 0.225568 24 3
0.879502 3.398334 -0.682333 55 4
1.079750 4.172081 0.377036 26 5
0.879488 3.398281 -0.555968 58 6
1.077785 4.164488 0.528182 30 7
0.873369 3.374638 -0.428005 55 8
1.074490 4.151755 0.679238 30 9
0.880074 3.400545 -0.307311 53 10
1.078718 4.168091 0.836888 28 11
0.879723 3.399189 -0.184013 53 12
1.073184 4.146709 0.988885 26 13
0.867769 3.353001 -0.060455 45 14
1.076952 4.161269 1.151745 33 15
0.787853 2.958892 -0.820456 9 0
0.913576 3.431060 -0.819722 11 2
1.099227 4.128299 0.223893 26 3
0.901690 3.386420 -0.681188 51 4
1.097572 4.122085 0.373201 26 5
0.904208 3.395876 -0.556594 58 6
1.098150 4.124252 0.524038 30 7
0.899972 3.379968 -0.429468 55 8
1.095824 4.115520 0.674545 30 9
0.901742 3.386617 -0.306614 53 10
1.095667 4.114927 0.827729 27 11
0.905488 3.400684 -0.184432 55 12
1.094085 4.108986 0.981686 26 13
0.893215 3.354591 -0.060595 46 14
1.094047 4.108845 1.139321 35 15
0.784374 2.945824 -0.816833 9 0
1.091821 4.100485 0.074068 27 1
0.916083 3.440475 -0.821971 10 2
1.092033 4.101279 0.222428 27 3
0.906741 3.405391 -0.685004 51 4
1.088345 4.087429 0.370063 27 5
0.904208 3.395876 -0.556594 57 6
1.087934 4.085887 0.519163 30 7
0.903036 3.391478 -0.430930 55 8
1.087692 4.084978 0.669540 33 9
0.903793 3.394318 -0.307311 55 10
1.081522 4.061807 0.817044 30 11
0.904460 3.396824 -0.184223 55 12
1.086062 4.078856 0.974488 26 13
0.896302 3.366185 -0.060804 47 14
1.085100 4.075243 1.130004 38 15
0.803390 2.934686 -0.815280 9 0
1.109333 4.052259 0.073335 27 1
0.932361 3.405802 -0.815223 7 2
1.109563 4.053102 0.220230 26 3
0.931011 3.400872 -0.685386 46 4
1.109488 4.052828 0.367623 26 5
0.927893 3.389481 -0.556594 57 6
1.104377 4.034155 0.513557 30 7
0.927739 3.388920 -0.431417 56 8
1.106795 4.042990 0.663908 33 9
0.929571 3.395612 -0.308008 53 10
1.099485 4.016285 0.809412 30 11
0.926570 3.384648 -0.183909 52 12
1.107307 4.044860 0.968189 26 13
0.922948 3.371418 -0.061014 46 14
1.104342 4.034029 1.120686 39 15
0.803390 2.934686 -0.815280 8 0
1.100885 4.021400 0.072777 28 1
0.931332 3.402043 -0.814323 4 2
1.096907 4.006868 0.217718 27 3
1.101071 4.022080 0.364834 26 5
1.094942 3.999691 0.509170 30 7
0.919877 3.360200 -0.427761 12 8
1.095320 4.001073 0.657025 31 9
0.931676 3.403299 -0.308706 55 10
1.093264 3.993562 0.804832 29 11
0.929207 3.394280 -0.184432 57 12
1.094958 3.999750 0.957392 31 13
0.922948 3.371418 -0.061014 43 14
1.095161 4.000490 1.111369 39 15
0.823858 2.929006 -0.815280 8 0
1.123518 3.994366 0.072427 28 1
0.857443 3.048409 -0.731091 2 2
1.115119 3.964505 0.215833 26 3
0.857450 3.048435 -0.615550 3 4
1.117255 3.972101 0.360999 27 5
0.859001 3.053946 -0.502468 3 6
1.116388 3.969018 0.506245 30 7
0.859463 3.055590 -0.389738 3 8
1.111459 3.951495 0.650142 31 9
1.113676 3.959374 0.799490 27 11
0.957748 3.405014 -0.185374 37 12
1.111246 3.950738 0.947494 31 13
0.946462 3.364893 -0.061014 46 14
1.112601 3.955553 1.101016 37 15
0.821766 2.921567 -0.813209 7 0
1.109440 3.944316 0.071520 28 1
0.850584 3.024022 -0.725242 4 2
1.107548 3.937588 0.214368 26 3
0.850540 3.023866 -0.610589 4 4
1.108084 3.939495 0.358036 30 5
0.856861 3.046340 -0.501216 4 6
1.107251 3.936533 0.502102 32 7
0.858926 3.053679 -0.389494 4 8
1.102901 3.921069 0.645136 31 9
0.851293 3.026545 -0.275064 3 10
1.105170 3.929136 0.793384 28 11
1.103859 3.924475 0.941195 31 13
0.947545 3.368743 -0.061083 45 14
1.101093 3.914640 1.089628 35 15
0.841606 2.913903 -0.812692 8 0
1.125852 3.898052 0.070822 30 1
0.861941 2.984310 -0.717144 4 2
1.128360 3.906734 0.213112 28 3
0.868906 3.008423 -0.608681 4 4
1.123397 3.889552 0.354201 27 5
0.868241 3.006123 -0.495584 4 6
1.124240 3.892471 0.497471 30 7
0.871410 3.017094 -0.385595 4 8
1.124767 3.894296 0.642007 33 9
0.874060 3.026271 -0.275586 3 10
1.118410 3.872284 0.783462 30 11
0.878968 3.043261 -0.166010 3 12
1.124200 3.892334 0.935346 31 13
0.975479 3.377415 -0.061363 45 14
1.120890 3.880874 1.082381 37 15
0.849647 2.941743 -0.820456 9 0
1.115864 3.863470 0.070194 30 1
0.855452 2.961843 -0.711745 4 2
1.116721 3.866439 0.210914 28 3
0.862913 2.987675 -0.604483 4 4
1.116763 3.866582 0.352109 27 5
0.862760 2.987145 -0.492456 4 6
1.113223 3.854328 0.492596 30 7
0.863698 2.990394 -0.382182 4 8
1.115449 3.862034 0.636688 35 9
0.867426 3.003301 -0.273495 3 10
1.105335 3.827016 0.774303 29 11
0.871209 3.016398 -0.164544 3 12
1.112845 3.853018 0.925899 30 13
0.977699 3.385099 -0.061502 43 14
1.112314 3.851178 1.074099 38 15
0.867967 2.928331 -0.818386 8 0
1.139967 3.846000 0.070019 33 1
0.868356 2.929641 -0.705446 4 2
1.131200 3.816421 0.208611 30 3
0.877613 2.960873 -0.600285 4 4
1.135236 3.830038 0.349495 28 5
0.877979 2.962110 -0.489327 4 6
1.133335 3.823624 0.489671 30 7
0.877785 2.961453 -0.379257 4 8
1.130595 3.814379 0.630118 33 9
0.883842 2.981890 -0.272100 5 10
1.127562 3.804148 0.771250 28 11
0.884300 2.983433 -0.163079 3 12
1.129195 3.809655 0.917350 31 13
1.001307 3.378191 -0.061502 47 14
1.129290 3.809979 1.064782 42 15
0.865771 2.920922 -0.816315 8 0
1.128602 3.807655 0.069321 27 1
0.863925 2.914694 -0.701847 4 2
1.122686 3.787697 0.207041 28 3
0.870918 2.938285 -0.595706 4 4
1.125045 3.795654 0.346357 27 5
0.875734 2.954534 -0.488076 4 6
1.123745 3.791269 0.485527 31 7
0.872707 2.944324 -0.377064 4 8
1.115999 3.765137 0.621983 35 9
0.878180 2.962788 -0.270357 3 10
1.118636 3.774031 0.765144 28 11
0.877489 2.960454 -0.161823 5 12
1.119780 3.777893 0.909702 35 13
1.003580 3.385860 -0.061642 42 14
1.118860 3.774787 1.054947 40 15
0.886142 2.914807 -0.816315 9 0
1.145850 3.769072 0.068762 26 1
0.881418 2.899270 -0.699598 4 2
1.140968 3.753014 0.205576 27 3
0.881130 2.898323 -0.588837 4 4
1.138766 3.745770 0.342522 28 5
0.886571 2.916219 -0.482757 4 6
1.143256 3.760540 0.482603 33 7
0.885735 2.913469 -0.373895 4 8
1.134213 3.730795 0.617603 35 9
0.886093 2.914647 -0.266522 3 10
1.136961 3.739832 0.759801 33 11
0.892326 2.935148 -0.160776 5 12
1.139325 3.747609 0.904303 35 13
1.027193 3.378772 -0.061642 43 14
1.133385 3.728069 1.044076 37 15
0.884456 2.909262 -0.814762 9 0
1.133635 3.728894 0.068029 26 1
0.871782 2.867573 -0.691949 4 2
1.136321 3.737727 0.204738 28 3
0.875420 2.879539 -0.585020 4 4
1.131812 3.722895 0.340430 33 5
0.876803 2.884090 -0.477438 4 6
1.130553 3.718756 0.477240 36 7
0.881116 2.898275 -0.371945 4 8
1.129617 3.715675 0.615100 33 9
0.880877 2.897491 -0.264953 3 10
1.127824 3.709779 0.753696 33 11
0.884192 2.908395 -0.159311 5 12
1.130256 3.717777 0.897105 33 13
1.033010 3.397904 -0.061991 41 14
1.126642 3.705890 1.037864 34 15
0.903595 2.899328 -0.813727 9 0
1.152500 3.697979 0.067611 28 1
0.881343 2.827929 -0.683851 4 2
1.152879 3.699194 0.203064 31 3
0.890828 2.858363 -0.581967 4 4
1.150068 3.690175 0.338164 28 5
0.889863 2.855267 -0.473684 4 6
1.145265 3.674764 0.472609 31 7
0.893649 2.867415 -0.368777 4 8
1.149652 3.688839 0.611972 37 9
0.898713 2.883662 -0.264256 3 10
1.140844 3.660579 0.745300 34 11
0.891401 2.860201 -0.157008 5 12
1.145746 3.676307 0.889007 31 13
1.060276 3.402064 -0.062200 42 14
1.145588 3.675802 1.031653 35 15
0.904745 2.903016 -0.814762 10 0
1.143575 3.669342 0.067087 30 1
0.874385 2.805603 -0.678452 4 2
1.139805 3.657244 0.200761 33 3
0.881482 2.828373 -0.575862 4 4
1.141768 3.663544 0.335724 30 5
0.883986 2.836408 -0.470555 4 6
1.139949 3.657707 0.470416 33 7
0.885380 2.840883 -0.365364 4 8
1.137309 3.649235 0.605401 37 9
0.888042 2.849423 -0.261119 3 10
1.133834 3.638087 0.740721 33 11
0.884270 2.837320 -0.155752 4 12
1.135309 3.642819 0.880908 29 13
1.057896 3.394428 -0.062061 45 14
1.138691 3.653669 1.025441 37 15
0.925577 2.898470 -0.815280 10 0
1.161864 3.638410 0.066668 28 1
0.891579 2.792005 -0.676653 4 2
1.156803 3.622561 0.199295 34 3
0.892248 2.794098 -0.570137 4 4
1.156407 3.621321 0.332586 27 5
0.893551 2.798178 -0.465236 4 6
1.158814 3.628859 0.467735 31 7
0.894926 2.802485 -0.361221 4 8
1.150138 3.601690 0.598831 35 9
0.899428 2.816583 -0.258678 3 10
1.150844 3.603900 0.735378 34 11
0.899196 2.815857 -0.154914 4 12
1.152414 3.608815 0.874610 33 13
1.080351 3.383150 -0.061991 41 14
1.152417 3.608824 1.015088 39 15
0.923814 2.892949 -0.813727 10 0
1.150915 3.604121 0.066040 27 1
0.882094 2.762303 -0.669454 4 2
1.149513 3.599730 0.198039 31 3
0.883887 2.767915 -0.564795 4 4
1.147922 3.594749 0.330146 28 5
0.886940 2.777478 -0.461795 4 6
1.152776 3.609949 0.465297 30 7
0.889491 2.785466 -0.359027 4 8
1.142927 3.579108 0.595077 35 9
0.893367 2.797603 -0.256935 3 10
1.142483 3.577717 0.730035 30 11
0.890690 2.789220 -0.153449 4 12
1.145300 3.586538 0.869211 33 13
1.084001 3.394579 -0.062200 41 14
1.137725 3.562817 1.002147 36 15
0.948379 2.903285 -0.818386 14 0
1.164858 3.565995 0.065481 27 1
0.894949 2.739720 -0.665405 4 2
1.167160 3.573042 0.196993 31 3
0.896128 2.743330 -0.560978 4 4
1.161221 3.554860 0.327183 31 5
0.894915 2.739613 -0.456476 4 6
1.161283 3.555050 0.459204 34 7
0.898700 2.751201 -0.355371 4 8
1.161119 3.554550 0.592261 36 9
0.903241 2.765102 -0.254495 3 10
1.155213 3.536469 0.723166 30 11
0.904828 2.769962 -0.152716 4 12
1.161800 3.556634 0.863812 33 13
1.110838 3.400621 -0.062445 27 14
1.153531 3.531320 0.995418 35 15
0.945980 2.895940 -0.816315 11 0
1.154923 3.535582 0.064923 28 1
0.883452 2.704524 -0.656857 4 2
1.157237 3.542665 0.195318 33 3
0.892471 2.732132 -0.558689 4 4
1.154416 3.534028 0.325265 30 5
0.887554 2.717081 -0.452721 4 6
1.150188 3.521084 0.454816 34 7
0.887605 2.717236 -0.350984 4 8
1.153146 3.530139 0.588194 35 9
0.896435 2.744269 -0.252577 3 10
1.150336 3.521539 0.720113 32 11
0.895526 2.741484 -0.151146 4 12
1.148488 3.515881 0.853914 30 13
1.148732 3.516629 0.991277 35 15
0.969130 2.896425 -0.818386 10 0
1.173848 3.508263 0.064574 28 1
0.894126 2.672261 -0.650558 4 2
1.170517 3.498307 0.193329 30 3
0.897671 2.682855 -0.549911 4 4
1.172721 3.504893 0.323348 37 5
0.901960 2.695674 -0.450218 4 6
1.166536 3.486408 0.451404 34 7
0.897578 2.682577 -0.347328 4 8
1.167094 3.488078 0.582562 35 9
0.908463 2.715111 -0.250486 4 10
1.168031 3.490876 0.715534 34 11
0.909416 2.717959 -0.150204 4 12
1.161251 3.470612 0.844916 30 13
1.167124 3.488167 0.985583 35 15
0.969743 2.898257 -0.818903 10 0
1.167503 3.489300 0.064225 28 1
0.891652 2.664869 -0.648759 4 2
1.162278 3.473684 0.191968 33 3
0.891441 2.664237 -0.546095 4 4
1.160077 3.467104 0.319862 31 5
0.895692 2.676941 -0.447090 4 6
1.162127 3.473231 0.449698 38 7
0.892539 2.667517 -0.345378 4 8
1.158319 3.461852 0.578182 36 9
0.898348 2.684880 -0.247697 4 10
1.158064 3.461087 0.709428 33 11
0.900544 2.691442 -0.148739 4 12
1.156304 3.455828 0.841317 29 13
1.071692 3.202950 -0.058954 3 14
1.159769 3.466183 0.979371 35 15
0.967293 2.823622 -0.799751 3 0
1.182721 3.452479 0.063701 33 1
0.908804 2.652889 -0.647409 7 2
1.180633 3.446383 0.190922 34 3
0.903484 2.637359 -0.541898 4 4
1.175817 3.432326 0.317421 28 5
0.906502 2.646169 -0.443022 4 6
1.177301 3.436657 0.446042 31 7
0.909031 2.653550 -0.344403 4 8
1.174740 3.429181 0.574115 36 9
0.908498 2.651995 -0.245256 4 10
1.170076 3.415566 0.701795 33 11
0.915897 2.673592 -0.148111 4 12
1.174056 3.427186 0.836368 30 13
1.095232 3.197091 -0.058989 3 14
1.169516 3.413933 0.966948 39 15
0.912198 2.662795 -0.754199 1 0
1.171056 3.418427 0.063073 31 1
0.906910 2.647358 -0.646059 8 2
1.174160 3.427489 0.189875 34 3
0.906029 2.644789 -0.543424 8 4
1.167423 3.407823 0.315155 26 5
0.902021 2.633088 -0.440832 7 6
1.170868 3.417877 0.443604 31 7
0.908387 2.651672 -0.344159 6 8
1.168338 3.410493 0.570986 34 9
0.903332 2.636916 -0.243862 4 10
1.162441 3.393278 0.697216 31 11
0.909424 2.654698 -0.147064 4 12
1.165846 3.403220 0.830519 32 13
1.097176 3.202766 -0.059094 3 14
1.161377 3.390175 0.960219 38 15
0.927285 2.649393 -0.752128 2 0
1.184453 3.384161 0.062584 31 1
0.917366 2.621053 -0.641110 9 2
1.185650 3.387579 0.188095 38 3
0.922253 2.635015 -0.542661 9 4
1.184733 3.384961 0.313761 26 5
0.918159 2.623318 -0.440207 9 6
1.183017 3.380058 0.439705 33 7
0.923331 2.638094 -0.343184 10 8
1.184406 3.384025 0.567857 39 9
0.923434 2.638389 -0.244559 5 10
1.175840 3.359552 0.691873 30 11
0.922392 2.635412 -0.146331 6 12
1.179379 3.369662 0.824221 32 13
1.123678 3.210518 -0.059373 5 14
1.178092 3.365987 0.955560 39 15
0.926009 2.645746 -0.751093 3 0
1.177187 3.363400 0.062200 28 1
0.919297 2.626571 -0.642460 8 2
1.173113 3.351762 0.186107 34 3
0.920956 2.631309 -0.541898 10 4
1.179468 3.369917 0.312366 27 5
0.920117 2.628911 -0.441145 10 6
1.173181 3.351954 0.436049 37 7
0.920708 2.630600 -0.342209 13 8
1.174617 3.356057 0.563164 34 9
0.920801 2.630867 -0.243862 9 10
1.170651 3.344727 0.688820 28 11
0.915794 2.616561 -0.145285 9 12
1.165860 3.331036 0.814773 32 13
1.121036 3.202968 -0.059233 5 14
1.167881 3.336813 0.947278 34 15
0.944917 2.639052 -0.751093 1 0
1.195832 3.339829 0.061921 28 1
0.937412 2.618091 -0.642010 7 2
1.188989 3.320717 0.184851 31 3
0.937114 2.617258 -0.540371 9 4
1.192134 3.329502 0.309403 32 5
0.941569 2.629699 -0.442397 8 6
1.190445 3.324784 0.433611 35 7
0.930809 2.599648 -0.339041 10 8
1.186616 3.314090 0.557532 34 9
0.936245 2.614832 -0.242990 12 10
1.189261 3.321478 0.685768 31 11
0.936514 2.615582 -0.145599 13 12
1.181126 3.298757 0.808924 30 13
1.186519 3.313820 0.943137 35 15
0.914961 2.555388 -0.727282 1 0
1.187743 3.317237 0.061502 28 1
0.943324 2.634603 -0.646059 4 2
1.183603 3.305674 0.184013 31 3
0.939761 2.624651 -0.541898 8 4
1.177359 3.288235 0.305568 33 5
0.939571 2.624120 -0.441458 6 6
1.185761 3.311701 0.431905 42 7
0.939508 2.623944 -0.342209 7 8
1.178625 3.291773 0.553778 34 9
0.931544 2.601701 -0.241770 6 10
1.179996 3.295601 0.680425 31 11
0.936514 2.615582 -0.145599 13 12
1.175214 3.282245 0.804875 30 13
1.131119 3.159094 -0.058570 32 14
1.173495 3.277444 0.932784 34 15
0.918173 2.509026 -0.715894 4 0
1.200564 3.280695 0.060979 33 1
0.926870 2.532790 -0.622665 3 2
1.199101 3.276699 0.182862 32 3
0.951990 2.601434 -0.538463 3 4
1.193439 3.261225 0.303825 33 5
0.949043 2.593381 -0.437391 4 6
1.196572 3.269787 0.427518 33 7
0.956439 2.613593 -0.341722 5 8
1.194110 3.263059 0.550336 34 9
0.956531 2.613845 -0.243513 5 10
1.189481 3.250409 0.672792 33 11
0.956810 2.614607 -0.145913 9 12
1.194081 3.262980 0.802175 33 13
1.151772 3.147364 -0.058500 30 14
1.191036 3.254658 0.928643 35 15
0.918173 2.509026 -0.715894 4 0
1.192317 3.258161 0.060560 33 1
0.916824 2.505339 -0.615916 3 2
1.192238 3.257942 0.181815 35 3
0.923653 2.523999 -0.522435 3 4
1.188646 3.248128 0.302605 35 5
0.916457 2.504338 -0.422373 3 6
1.183610 3.234368 0.422887 37 7
1.190037 3.251929 0.548459 34 9
0.933252 2.550230 -0.237587 3 10
1.182734 3.231973 0.668976 34 11
0.955437 2.610855 -0.145703 6 12
1.183366 3.233699 0.794977 33 13
1.146274 3.132341 -0.058221 28 14
1.183069 3.232888 0.922431 36 15
0.932525 2.495479 -0.713823 3 0
1.203968 3.221872 0.060036 34 1
0.927717 2.482612 -0.611867 3 2
1.201802 3.216075 0.179931 35 3
0.929816 2.488229 -0.516329 3 4
1.204451 3.223165 0.301036 30 5
0.926568 2.479537 -0.419244 3 6
1.201429 3.215079 0.421424 32 7
0.931125 2.491733 -0.326610 1 8
1.203847 3.221549 0.544705 36 9
0.937338 2.508358 -0.234275 3 10
1.199208 3.209135 0.665923 34 11
0.937531 2.508876 -0.140365 3 12
1.197846 3.205490 0.790028 31 13
1.157769 3.098242 -0.057733 23 14
1.198285 3.206664 0.917255 39 15
0.924410 2.473764 -0.707611 3 0
1.202568 3.218126 0.059966 37 1
0.921577 2.466182 -0.607818 3 2
1.194810 3.197366 0.178884 38 3
0.920882 2.464321 -0.511368 3 4
1.196082 3.200769 0.298944 30 5
0.921036 2.464734 -0.416741 3 6
1.196565 3.202063 0.419718 27 7
0.920702 2.463840 -0.322954 2 8
1.187251 3.177139 0.537196 40 9
0.923389 2.471031 -0.230788 3 10
1.192336 3.190744 0.662107 34 11
0.934735 2.501392 -0.139946 3 12
1.191707 3.189061 0.785979 34 13
1.144469 3.062651 -0.057069 45 14
1.189494 3.183139 0.910525 42 15
0.928834 2.434925 -0.698294 4 0
1.211616 3.176234 0.059338 38 1
0.932786 2.445287 -0.604219 4 2
1.209428 3.170499 0.177838 33 3
0.932736 2.445156 -0.508697 3 4
1.205769 3.160907 0.295981 35 5
0.929343 2.436260 -0.412987 3 6
1.214795 3.184570 0.418499 26 7
0.934621 2.450097 -0.321979 3 8
1.201809 3.150527 0.534067 39 9
0.929536 2.436765 -0.228174 4 10
1.202831 3.153205 0.656001 33 11
0.944621 2.476311 -0.138900 3 12
1.207830 3.166309 0.782380 36 13
1.166002 3.056659 -0.057104 46 14
1.197362 3.138869 0.900173 38 15
0.924014 2.422290 -0.694670 4 0
1.203063 3.153814 0.058919 34 1
0.923062 2.419796 -0.597920 4 2
1.203733 3.155570 0.177000 38 3
0.927139 2.430481 -0.505644 3 4
1.199378 3.144153 0.294412 32 5
0.919486 2.410421 -0.408607 3 6
1.204183 3.156749 0.414843 30 7
0.931084 2.440824 -0.320760 3 8
1.193361 3.128380 0.530313 40 9
0.922435 2.418150 -0.226431 4 10
1.194434 3.131193 0.651422 30 11
0.930384 2.438989 -0.136806 3 12
1.202273 3.151743 0.778781 36 13
1.157449 3.034238 -0.056685 23 14
1.191165 3.122624 0.895514 36 15
0.936833 2.402852 -0.691047 4 0
1.216706 3.120690 0.058466 31 1
0.932281 2.391177 -0.592521 4 2
1.215224 3.116888 0.175325 35 3
0.937085 2.403499 -0.501446 3 4
1.214432 3.114857 0.292495 35 5
0.929955 2.385212 -0.405478 3 6
1.212148 3.108998 0.409725 35 7
0.932366 2.391395 -0.315154 3 8
1.211955 3.108505 0.528436 37 9
0.938688 2.407610 -0.226082 3 10
1.210223 3.104062 0.647606 32 11
0.941708 2.415356 -0.135864 3 12
1.216849 3.121058 0.773382 40 13
1.175302 3.014494 -0.056476 21 14
1.208409 3.099409 0.891373 36 15
0.933324 2.393853 -0.688459 4 0
1.210169 3.103922 0.058151 30 1
0.926618 2.376652 -0.588922 4 2
1.206518 3.094558 0.174069 32 3
0.928527 2.381549 -0.496867 4 4
1.210090 3.103720 0.291449 35 5
0.926367 2.376009 -0.403914 4 6
1.203495 3.086804 0.406800 37 7
0.924434 2.371050 -0.312473 3 8
1.206215 3.093781 0.525933 42 9
0.931451 2.389047 -0.224339 4 10
1.205944 3.093087 0.645316 31 11
0.935904 2.400469 -0.135027 3 12
1.201984 3.082930 0.763934 35 13
1.167312 2.993999 -0.056092 21 14
1.204199 3.088610 0.888267 35 15
0.938475 2.360682 -0.680694 4 0
1.226296 3.084678 0.057942 30 1
0.936601 2.355967 -0.585323 4 2
1.218161 3.064217 0.172813 32 3
0.932697 2.346149 -0.490761 3 4
1.220343 3.069705 0.289008 34 5
0.938456 2.360635 -0.402349 4 6
1.218074 3.063997 0.404850 37 7
0.935739 2.353799 -0.311011 4 8
1.215031 3.056343 0.520927 33 9
0.941387 2.368006 -0.222944 4 10
1.222080 3.074075 0.643026 32 11
0.948852 2.386785 -0.134608 3 12
1.215205 3.056781 0.759435 35 13
1.175323 2.956460 -0.055534 20 14
1.216092 3.059013 0.882055 35 15
0.932052 2.344525 -0.676035 4 0
1.215953 3.058663 0.057453 37 1
0.933721 2.348723 -0.583523 4 2
1.213734 3.053081 0.172185 35 3
0.928346 2.335202 -0.488471 3 4
1.208567 3.040082 0.286219 37 5
0.931159 2.342279 -0.399221 4 6
1.213674 3.052929 0.403388 35 7
0.930605 2.340886 -0.309304 4 8
1.209193 3.041658 0.518424 34 9
0.932554 2.345788 -0.220853 4 10
1.210476 3.044885 0.636920 33 11
0.939998 2.364514 -0.133352 4 12
1.208006 3.038672 0.754936 35 13
1.170891 2.945311 -0.055324 18 14
1.206101 3.033880 0.874808 35 15
0.938957 2.314689 -0.669306 4 0
1.227505 3.026010 0.057000 39 1
0.943503 2.325895 -0.579474 4 2
1.229764 3.031577 0.171453 36 3
0.940936 2.319568 -0.486563 3 4
1.222271 3.013108 0.284476 34 5
0.937835 2.311924 -0.395153 4 6
1.224511 3.018628 0.399975 37 7
0.947671 2.336172 -0.309548 4 8
1.224458 3.018498 0.515921 34 9
0.940670 2.318912 -0.218935 4 10
1.221372 3.010890 0.631578 33 11
0.951978 2.346789 -0.132724 4 12
1.224795 3.019330 0.752236 35 13
1.183907 2.918534 -0.054975 20 14
1.219990 3.007484 0.869632 36 15
0.937504 2.311109 -0.668271 4 0
1.219237 3.005627 0.056616 37 1
0.934712 2.304225 -0.574075 4 2
1.218502 3.003816 0.169883 37 3
0.937984 2.312291 -0.485036 4 4
1.217778 3.002031 0.283430 37 5
0.934865 2.304602 -0.393902 4 6
1.213318 2.991036 0.396319 38 7
0.939463 2.315937 -0.306867 4 8
1.220003 3.007515 0.514044 38 9
0.936176 2.307834 -0.217889 4 10
1.209564 2.981782 0.625472 32 11
0.941467 2.320878 -0.131259 4 12
1.217470 3.001271 0.747737 35 13
1.180901 2.911122 -0.054835 21 14
1.214181 2.993163 0.865491 35 15
0.949923 2.295582 -0.665683 4 0
1.235602 2.985955 0.056406 38 1
0.946305 2.286840 -0.571376 4 2
1.228751 2.969399 0.168417 41 3
0.946597 2.287546 -0.481220 4 4
1.233373 2.980569 0.282210 38 5
0.947155 2.288893 -0.392338 4 6
1.224302 2.958647 0.393151 31 7
0.945741 2.285477 -0.303698 4 8
1.233416 2.980672 0.510915 38 9
0.949218 2.293879 -0.217192 4 10
1.225847 2.962381 0.623182 35 11
0.952301 2.301330 -0.130526 4 12
1.228706 2.969291 0.741889 33 13
1.188961 2.873243 -0.054277 21 14
1.229138 2.970334 0.861350 36 15
0.945491 2.284872 -0.662577 3 0
1.228721 2.969326 0.056092 41 1
0.939599 2.270634 -0.567327 4 2
1.218823 2.945408 0.167056 42 3
0.942093 2.276661 -0.478931 4 4
1.223470 2.956636 0.279944 33 5
0.944134 2.281592 -0.391086 4 6
1.222025 2.953145 0.392419 34 7
0.937392 2.265300 -0.301017 4 8
1.218310 2.944167 0.504658 42 9
0.942361 2.277309 -0.215623 4 10
1.221343 2.951496 0.620892 35 11
0.949247 2.293948 -0.130107 4 12
1.223490 2.956686 0.738739 39 13
1.176728 2.843679 -0.053719 22 14
1.218796 2.945343 0.854103 37 15
0.945646 2.240838 -0.651706 4 0
1.239313 2.936724 0.055638 38 1
0.953913 2.260428 -0.566427 4 2
1.233921 2.923946 0.166324 40 3
0.951858 2.255558 -0.475878 4 4
1.234785 2.925995 0.277853 31 5
0.950055 2.251286 -0.387019 4 6
1.240296 2.939054 0.391688 31 7
0.953184 2.258701 -0.301017 4 8
1.228082 2.910110 0.500277 38 9
0.950490 2.252319 -0.213880 4 10
1.232759 2.921192 0.616313 33 11
0.963685 2.283585 -0.129898 4 12
1.237283 2.931914 0.734690 38 13
1.188777 2.816971 -0.053369 23 14
1.228062 2.910064 0.846338 37 15
0.940388 2.228379 -0.648083 4 0
1.229983 2.914616 0.055219 45 1
0.945578 2.240679 -0.561478 4 2
1.230814 2.916585 0.165905 46 3
0.949567 2.250132 -0.474733 4 4
1.227039 2.907639 0.276109 34 5
0.947750 2.245826 -0.386080 4 6
1.231035 2.917108 0.388763 39 7
0.949325 2.249556 -0.299799 4 8
1.229618 2.913750 0.500903 48 9
0.946617 2.243140 -0.213009 4 10
1.225125 2.903104 0.612497 29 11
0.953590 2.259664 -0.128537 4 12
1.228191 2.910369 0.729291 44 13
1.184112 2.805917 -0.053160 22 14
1.222805 2.897605 0.842715 35 15
0.953244 2.216603 -0.646530 4 0
1.243474 2.891480 0.054940 37 1
0.951569 2.212708 -0.556079 4 2
1.242748 2.889792 0.164858 37 3
0.964086 2.241813 -0.474351 4 4
1.240505 2.884577 0.274715 33 5
0.958333 2.228435 -0.384203 4 6
1.239099 2.881307 0.385107 36 7
0.958341 2.228454 -0.297849 4 8
1.238497 2.879907 0.496523 37 9
0.959502 2.231154 -0.212486 4 10
1.238653 2.880270 0.609444 30 11
0.961058 2.234773 -0.127490 4 12
1.238734 2.880459 0.723892 37 13
1.196863 2.783096 -0.052881 23 14
1.237920 2.878567 0.839609 32 15
0.953244 2.216603 -0.646530 4 0
1.236364 2.874947 0.054626 39 1
0.949260 2.207337 -0.554729 4 2
1.231701 2.864105 0.163393 37 3
0.952452 2.214760 -0.468627 4 4
1.235782 2.873595 0.273669 37 5
0.953650 2.217547 -0.382326 4 6
1.229688 2.859423 0.382182 34 7
0.952067 2.213865 -0.295899 4 8
1.230693 2.861761 0.493394 35 9
0.955567 2.222003 -0.211614 4 10
1.233999 2.869448 0.607154 30 11
0.955535 2.221929 -0.126758 4 12
1.224876 2.848235 0.715794 33 13
1.187383 2.761051 -0.052462 21 14
1.231815 2.864369 0.835468 34 15
0.960153 2.188327 -0.640318 4 0
1.254191 2.858482 0.054486 31 1
0.960717 2.189612 -0.552030 4 2
1.247848 2.844026 0.162765 40 3
0.963139 2.195134 -0.465956 4 4
1.246407 2.840741 0.271403 38 5
0.967499 2.205070 -0.381387 4 6
1.243437 2.833972 0.379989 39 7
0.960294 2.188648 -0.293461 4 8
1.243701 2.834573 0.490266 32 9
0.967826 2.205816 -0.210743 4 10
1.250267 2.849539 0.604865 33 11
0.968587 2.207549 -0.126339 4 12
1.239458 2.824903 0.712195 33 13
1.196342 2.726637 -0.051973 19 14
1.246569 2.841110 0.831327 31 15
0.951615 2.168867 -0.634624 4 0
1.243746 2.834677 0.054033 38 1
0.959151 2.186043 -0.551130 4 2
1.244638 2.836710 0.162346 40 3
0.962351 2.193336 -0.465574 4 4
1.236800 2.818846 0.269311 36 5
0.961150 2.190598 -0.378884 4 6
1.239449 2.824883 0.378770 34 7
0.963484 2.195919 -0.294436 4 8
1.237351 2.820102 0.487763 36 9
0.959821 2.187571 -0.208999 4 10
1.240801 2.827965 0.600285 33 11
0.964575 2.198405 -0.125816 4 12
1.234760 2.814196 0.709496 35 13
1.189915 2.711987 -0.051694 19 14
1.234150 2.812805 0.823045 34 15
0.965978 2.162508 -0.634624 4 0
1.250285 2.798978 0.053509 44 1
0.967270 2.165400 -0.547531 4 2
1.256093 2.811981 0.161404 42 3
0.971271 2.174357 -0.462903 4 4
1.248968 2.796029 0.267917 39 5
0.968406 2.167943 -0.376068 4 6
1.247632 2.793038 0.375601 32 7
0.974788 2.182231 -0.293461 4 8
1.251193 2.801012 0.485885 33 9
0.971058 2.173881 -0.208302 4 10
1.245117 2.787408 0.593416 34 11
0.973431 2.179194 -0.125083 4 12
1.247039 2.791711 0.705896 31 13
1.204613 2.696733 -0.051554 19 14
1.244898 2.786919 0.817868 35 15
0.961251 2.151925 -0.631518 4 0
1.245392 2.788023 0.053300 41 1
0.964091 2.158283 -0.545731 4 2
1.248762 2.795568 0.160462 45 3
0.972072 2.176150 -0.463284 4 4
1.242467 2.781476 0.266522 37 5
0.964378 2.158925 -0.374504 4 6
1.236297 2.767663 0.372189 32 7
0.969121 2.169544 -0.291755 4 8
1.247165 2.791994 0.484321 37 9
0.966182 2.162966 -0.207256 4 10
1.237109 2.769482 0.589600 33 11
0.967729 2.166429 -0.124350 4 12
1.243860 2.784594 0.704097 33 13
1.199719 2.685778 -0.051345 18 14
1.233868 2.762225 0.810621 36 15
0.975450 2.143404 -0.631001 4 0
1.260684 2.770161 0.053125 45 1
0.977520 2.147952 -0.544831 4 2
1.254184 2.755879 0.158683 43 3
0.978295 2.149654 -0.459086 4 4
1.256903 2.761853 0.265476 38 5
0.976971 2.146746 -0.373565 4 6
1.250655 2.748125 0.370727 31 7
0.974376 2.141044 -0.288830 4 8
1.255989 2.759845 0.480254 40 9
0.977958 2.148914 -0.206559 4 10
1.249908 2.746483 0.586547 35 11
0.977866 2.148713 -0.123722 4 12
1.252776 2.752784 0.698248 31 13
1.135609 2.495329 -0.047855 9 14
1.253121 2.753544 0.810621 35 15
0.971449 2.134612 -0.628413 5 0
1.251572 2.750140 0.052741 41 1
0.975906 2.144404 -0.543932 6 2
1.248393 2.743154 0.157950 45 3
0.974229 2.140720 -0.457178 4 4
1.246174 2.738279 0.263210 33 5
0.977790 2.148544 -0.373878 4 6
1.247366 2.740897 0.369752 31 7
0.974376 2.141044 -0.288830 4 8
1.244534 2.734674 0.475874 38 9
0.972181 2.136220 -0.205339 4 10
1.243402 2.732188 0.583494 34 11
0.972075 2.135988 -0.122989 4 12
1.247125 2.740368 0.695099 33 13
1.111588 2.442547 -0.046842 11 14
1.241919 2.728927 0.803374 35 15
0.983890 2.122520 -0.626860 9 0
1.262331 2.723193 0.052392 41 1
0.990033 2.135771 -0.543482 8 2
1.260793 2.719875 0.157113 45 3
0.985022 2.124960 -0.455270 6 4
1.257719 2.713243 0.261642 38 5
0.987781 2.130913 -0.372001 6 6
1.260627 2.719515 0.368045 34 7
0.989300 2.134189 -0.288830 8 8
1.256118 2.709790 0.473058 42 9
0.981205 2.116728 -0.204119 5 10
1.257492 2.712754 0.581204 35 11
0.984444 2.123713 -0.122675 4 12
1.258850 2.715683 0.691050 41 13
1.124408 2.425655 -0.046668 11 14
1.250378 2.697406 0.796645 35 15
0.983078 2.120767 -0.626342 17 0
1.253080 2.703236 0.052008 41 1
0.987574 2.130467 -0.542132 17 2
1.255754 2.709003 0.156485 40 3
0.989150 2.133866 -0.457178 11 4
1.250178 2.696975 0.260073 31 5
0.982796 2.120159 -0.370124 11 6
1.253948 2.705107 0.366096 34 7
0.992639 2.141393 -0.289805 11 8
1.251964 2.700829 0.471493 40 9
0.977016 2.107689 -0.203247 9 10
1.245933 2.687817 0.575862 33 11
0.978564 2.111029 -0.121943 7 12
1.254752 2.706842 0.688800 38 13
1.122726 2.422027 -0.046598 12 14
1.243878 2.683384 0.792504 35 15
0.996210 2.110358 -0.625307 21 0
1.264239 2.678147 0.051694 40 1
0.995768 2.109422 -0.538533 29 2
1.260141 2.669466 0.154705 39 3
1.001509 2.121583 -0.456034 21 4
1.263873 2.677371 0.259027 33 5
0.993357 2.104315 -0.368560 20 6
1.262633 2.674746 0.363171 32 7
1.004175 2.127230 -0.288830 24 8
1.267416 2.684877 0.470242 43 9
0.994258 2.106222 -0.203770 14 10
1.259638 2.668401 0.573572 33 11
0.992425 2.102340 -0.121838 11 12
1.262804 2.675107 0.682951 43 13
1.137047 2.408705 -0.046493 11 14
1.255984 2.660659 0.788363 35 15
0.992912 2.103370 -0.623236 11 0
1.259117 2.667297 0.051485 37 1
0.990777 2.098849 -0.535833 14 2
1.253320 2.655017 0.153868 38 3
0.998156 2.114481 -0.454507 20 4
1.258770 2.666560 0.257981 31 5
0.997574 2.113246 -0.370124 22 6
1.250770 2.649614 0.359758 34 7
0.999938 2.118255 -0.287612 30 8
1.256454 2.661654 0.466175 38 9
