-0.917601 3.162523 -0.521553 58 6
-1.455391 5.016023 0.827225 6 9
-0.937162 3.229942 -0.294238 1 10
-1.497884 5.162477 1.044870 15 11
-0.935000 3.222492 -0.175849 48 12
-1.453143 5.008275 1.203938 8 13
-0.941713 3.245627 -0.058989 26 14
-1.436242 4.950028 1.381058 24 15
-0.807472 2.857353 -0.795610 3 0
-1.461206 5.170682 0.093789 7 1
-0.837849 2.964846 -0.711295 43 2
-0.929861 3.290444 0.179198 25 3
-0.892674 3.158851 -0.638065 60 4
-0.932470 3.299677 0.299990 22 5
-0.895500 3.168852 -0.521553 58 6
-1.416526 5.012575 0.639570 19 7
-1.416576 5.012754 0.825035 9 9
-1.460205 5.167140 1.043725 15 11
-0.909222 3.217409 -0.175221 48 12
-1.420262 5.025799 1.205738 10 13
-0.917944 3.248274 -0.058919 28 14
-1.432120 5.067760 1.411081 4 15
-0.812726 2.875944 -0.800786 4 0
-1.414982 5.007114 0.090822 17 1
-0.841029 2.976098 -0.713995 48 2
-0.925516 3.275068 0.178361 25 3
-0.890538 3.151294 -0.636539 58 4
-0.933554 3.303512 0.300339 22 5
-0.895500 3.168852 -0.521553 56 6
-1.429482 5.058422 0.645420 4 7
-0.902063 3.192078 -0.407287 39 8
-1.440213 5.096395 0.838802 3 9
-0.911881 3.226820 -0.293366 56 10
-1.410553 4.991438 1.008235 40 11
-0.911394 3.225096 -0.175639 45 12
-0.916856 3.244425 -0.058850 26 14
-1.432120 5.067760 1.411081 2 15
-0.792628 2.881548 -0.800786 4 0
-0.904261 3.287381 0.059513 11 1
-0.821265 2.985655 -0.714894 53 2
-0.901570 3.277598 0.178152 23 3
-0.867475 3.153649 -0.635776 59 4
-0.910468 3.309949 0.300339 23 5
-0.875451 3.182645 -0.522804 58 6
-0.882915 3.209782 -0.408750 57 8
-0.883519 3.211976 -0.291449 46 10
-1.427741 5.190459 1.046397 10 11
-0.888327 3.229455 -0.175535 38 12
-1.370669 4.982981 1.193140 12 13
-0.893123 3.246891 -0.058780 27 14
-0.788529 2.866647 -0.796645 4 0
-0.904791 3.289309 0.059548 26 1
-0.823332 2.993171 -0.716694 53 2
-0.905807 3.293004 0.178989 23 3
-0.865392 3.146077 -0.634249 54 4
-0.907826 3.300344 0.299467 20 5
-0.873879 3.176931 -0.521865 60 6
-1.375705 5.001288 0.636889 6 7
-0.882915 3.209782 -0.408750 59 8
-0.881405 3.204292 -0.290752 49 10
-1.412641 5.135564 1.035330 3 11
-0.892035 3.242935 -0.176268 42 12
-1.372737 4.990497 1.194940 19 13
-0.892062 3.243035 -0.058710 30 14
-1.365452 4.964011 1.379506 16 15
-0.771493 2.883279 -0.799751 4 0
-0.878187 3.282023 0.059303 28 1
-0.801408 2.995080 -0.715794 58 2
-0.881763 3.295389 0.178780 25 3
-0.845945 3.161525 -0.636157 63 4
-0.886308 3.312375 0.299990 21 5
-0.850147 3.177229 -0.520927 64 6
-1.340756 5.010770 0.636889 6 7
-0.858433 3.208197 -0.407775 57 8
-1.342364 5.016778 0.822532 6 9
-0.862103 3.221915 -0.291797 56 10
-0.866276 3.237507 -0.175639 45 12
-0.870434 3.253047 -0.058780 28 14
-1.356729 5.070465 1.406423 2 15
-0.775488 2.898208 -0.803892 4 0
-0.875602 3.272364 0.059129 27 1
-0.799393 2.987550 -0.713995 58 2
-0.880731 3.291530 0.178570 23 3
-0.847467 3.167214 -0.637302 60 4
-0.887338 3.316224 0.300339 22 5
-0.852189 3.184862 -0.522178 64 6
-1.344348 5.024194 0.638595 4 7
-0.855867 3.198609 -0.406556 48 8
-1.341343 5.012962 0.821907 12 9
-0.861588 3.219990 -0.291623 53 10
-1.348335 5.039095 1.013959 29 11
-0.866792 3.239437 -0.175744 49 12
-1.349449 5.043256 1.205288 2 13
-0.873535 3.264637 -0.058989 30 14
-0.757668 2.912899 -0.806480 4 0
-0.853744 3.282268 0.059199 27 1
-0.776556 2.985514 -0.712195 53 2
-0.857732 3.297598 0.178570 25 3
-0.825336 3.173053 -0.637302 66 4
-0.863164 3.318481 0.299990 22 5
-0.830930 3.194557 -0.522804 64 6
-1.301747 5.004639 0.634939 9 7
-0.832018 3.198742 -0.405825 57 8
-1.303332 5.010733 0.820029 4 9
-0.839089 3.225926 -0.291623 52 10
-1.347226 5.179487 1.040291 5 11
-0.842648 3.239610 -0.175430 41 12
-0.848710 3.262915 -0.058850 26 14
-1.304279 5.014375 1.388305 14 15
-0.756210 2.907291 -0.804927 6 0
-0.856764 3.293880 0.059408 26 1
-0.777047 2.987400 -0.712645 55 2
-0.856223 3.291799 0.178256 27 3
-0.823360 3.165453 -0.635776 59 4
-0.864167 3.322338 0.300339 23 5
-0.831427 3.196469 -0.523117 68 6
-0.832018 3.198742 -0.405825 57 8
-0.838588 3.223998 -0.291449 46 10
-0.844157 3.245409 -0.175744 52 12
-1.294097 4.975228 1.186842 21 13
-0.845690 3.251303 -0.058640 25 14
-1.294553 4.976983 1.377953 26 15
-0.733528 2.903134 -0.802339 7 0
-0.832768 3.295903 0.059338 30 1
-0.759513 3.005978 -0.715794 58 2
-0.835178 3.305442 0.178675 27 3
-0.802202 3.174931 -0.636539 66 4
-0.838023 3.316700 0.299293 22 5
-0.810059 3.206026 -0.523743 68 6
-1.257536 4.977037 0.630308 52 7
-0.812098 3.214096 -0.407044 63 8
-1.260092 4.987152 0.814711 69 9
-0.815571 3.227842 -0.291274 56 10
-1.256688 4.973678 0.997168 60 11
-0.821479 3.251223 -0.175744 42 12
-1.256467 4.972806 1.184142 53 13
-0.823951 3.261005 -0.058710 28 14
-1.250311 4.948439 1.367600 56 15
-0.732582 2.899388 -0.801304 7 0
-0.828849 3.280393 0.059059 27 1
-0.758559 3.002199 -0.714894 58 2
-0.834689 3.303506 0.178570 25 3
-0.805088 3.186352 -0.638829 76 4
-0.837047 3.312836 0.298944 22 5
-0.807156 3.194535 -0.521865 72 6
-1.261427 4.992434 0.632258 63 7
-0.812584 3.216020 -0.407287 54 8
-1.257672 4.977575 0.813146 56 9
-0.816060 3.229774 -0.291449 46 10
-1.253802 4.962257 0.994878 56 11
-0.820990 3.249286 -0.175639 41 12
-1.258854 4.982252 1.186392 57 13
-0.826890 3.272638 -0.058919 32 14
-1.252204 4.955931 1.369670 77 15
-0.718355 2.926821 -0.807515 9 0
-0.806501 3.285959 0.059059 28 1
-0.734854 2.994045 -0.711745 55 2
-0.812660 3.311050 0.178675 26 3
-0.783848 3.193664 -0.639210 73 4
-0.816377 3.326197 0.299641 22 5
-0.785863 3.201873 -0.522178 61 6
-1.233093 5.024039 0.635183 63 7
-0.788782 3.213766 -0.406312 54 8
-1.236475 5.037818 0.821594 67 9
-0.795481 3.241059 -0.291972 60 10
-1.233099 5.024063 1.005563 68 11
-0.795521 3.241222 -0.174907 38 12
-1.236060 5.036127 1.197190 74 13
-0.803641 3.274306 -0.058850 27 14
-1.235479 5.033758 1.388823 75 15
-0.717434 2.923069 -0.806480 9 0
-0.809361 3.297611 0.059268 28 1
-0.736248 2.999722 -0.713095 58 2
-0.810279 3.301352 0.178152 23 3
-0.781509 3.184131 -0.637302 69 4
-0.818277 3.333937 0.300339 23 5
-0.786334 3.203792 -0.522491 68 6
-1.231673 5.018255 0.634452 61 7
-0.787363 3.207982 -0.405581 63 8
-1.233179 5.024389 0.819404 61 9
-0.794056 3.235254 -0.291449 48 10
-1.233567 5.025970 1.005945 70 11
-0.797901 3.250920 -0.175430 48 12
-1.231879 5.019094 1.193140 74 13
-0.805548 3.282074 -0.058989 25 14
-1.234558 5.030005 1.387788 75 15
-0.695668 2.922369 -0.804927 9 0
-0.788172 3.310962 0.059408 26 1
-0.717093 3.012372 -0.714894 58 2
-0.788137 3.310814 0.178361 26 3
-0.759715 3.191419 -0.637684 73 4
-0.795904 3.343445 0.300687 23 5
-0.764406 3.211125 -0.522804 64 6
-1.186036 4.982316 0.628846 66 7
-0.766327 3.219194 -0.406312 57 8
-1.182061 4.965618 0.808453 61 9
-0.770989 3.238780 -0.291274 46 10
-1.187083 4.986712 0.996405 60 11
-0.777036 3.264183 -0.175849 45 12
-1.184625 4.976386 1.180993 68 13
-0.779836 3.275946 -0.058780 30 14
-1.185095 4.978363 1.371223 75 15
-0.694773 2.918610 -0.803892 9 0
-0.785393 3.299290 0.059199 24 1
-0.717093 3.012372 -0.714894 58 2
-0.790912 3.322472 0.178989 25 3
-0.757442 3.181870 -0.635776 59 4
-0.794059 3.335692 0.299990 22 5
-0.763948 3.209203 -0.522491 68 6
-1.186496 4.984247 0.629090 61 7
-0.765867 3.217263 -0.406069 60 8
-1.184806 4.977148 0.810331 60 9
-0.768682 3.229089 -0.290403 48 10
-1.185264 4.979073 0.994878 58 11
-0.776574 3.262240 -0.175744 49 12
-1.188235 4.991552 1.184592 63 13
-0.780763 3.279837 -0.058850 28 14
-1.183306 4.970846 1.369153 74 15
-0.672643 2.915860 -0.801821 10 0
-0.761891 3.302745 0.059164 28 1
-0.693855 3.007811 -0.712645 55 2
-0.768146 3.329859 0.179094 27 3
-0.735209 3.187080 -0.635776 54 4
-0.769856 3.337271 0.299641 23 5
-0.738861 3.202910 -0.520614 68 6
-1.165057 5.050438 0.636402 21 7
-0.744726 3.228334 -0.406800 54 8
-1.187328 5.146984 0.836612 13 9
-0.747016 3.238260 -0.290752 48 10
-1.195046 5.180440 1.033422 14 11
-0.753780 3.267582 -0.175744 34 12
-1.155987 5.011119 1.187292 40 13
-0.757846 3.285208 -0.058850 25 14
-0.675249 2.927154 -0.804927 10 0
-0.765038 3.316384 0.059408 30 1
-0.693417 3.005912 -0.712195 58 2
-0.765902 3.320128 0.178570 26 3
-0.739622 3.206210 -0.639592 69 4
-0.770752 3.341154 0.299990 23 5
-0.740193 3.208684 -0.521553 66 6
-1.170411 5.073649 0.639327 13 7
-0.743834 3.224466 -0.406312 54 8
-1.167347 5.060366 0.822532 16 9
-0.749703 3.249908 -0.291797 49 10
-1.158860 5.023573 1.002129 34 11
-0.752433 3.261744 -0.175430 45 12
-1.184459 5.134546 1.216535 10 13
-0.759644 3.293002 -0.058989 26 14
-1.155956 5.010987 1.377953 24 15
-0.656481 2.939338 -0.806998 12 0
-0.740123 3.313838 0.059268 26 1
-0.671565 3.006876 -0.711295 58 2
-0.739657 3.311750 0.177838 26 3
-0.714653 3.199799 -0.637302 66 4
-0.750013 3.358120 0.301036 23 5
-0.719497 3.221485 -0.522804 64 6
-1.159626 5.192126 0.653220 11 7
-0.718276 3.216018 -0.404606 50 8
-1.132852 5.072248 0.823158 21 9
-0.727865 3.258952 -0.292146 50 10
-1.154999 5.171412 1.029987 14 11
-0.729644 3.266917 -0.175430 42 12
-1.162177 5.203550 1.230932 14 13
-0.735764 3.294322 -0.058919 25 14
-0.656481 2.939338 -0.806998 10 0
-0.739251 3.309935 0.059199 26 1
-0.673264 3.014484 -0.713095 58 2
-0.741833 3.321496 0.178361 25 3
-0.713797 3.195967 -0.636539 69 4
-0.748276 3.350343 0.300339 25 5
-0.720358 3.225341 -0.523430 64 6
-1.124577 5.035200 0.633477 16 7
-0.719141 3.219893 -0.405094 50 8
-1.128977 5.054897 0.820342 6 9
-0.726562 3.253119 -0.291623 45 10
-1.147725 5.138839 1.023499 15 11
-0.730514 3.270816 -0.175639 42 12
-1.129045 5.055203 1.195840 6 13
-0.734021 3.286515 -0.058780 25 14
-0.633089 2.930632 -0.803374 11 0
-0.718237 3.324788 0.059373 28 1
-0.653437 3.024825 -0.714445 60 2
-0.718627 3.326594 0.178361 26 3
-0.691468 3.200873 -0.636539 58 4
-0.723185 3.347695 0.299641 22 5
-0.696155 3.222568 -0.522178 58 6
-1.086883 5.031286 0.632014 16 7
-0.699579 3.238418 -0.406800 54 8
-1.119937 5.184299 0.840053 3 9
-0.702992 3.254217 -0.291274 45 10
-1.114308 5.158241 1.025789 4 11
-0.708927 3.281693 -0.175953 34 12
-0.711903 3.295469 -0.058850 25 14
-1.104235 5.111611 1.401246 5 15
-0.632681 2.928744 -0.802857 11 0
-0.715703 3.313061 0.059164 27 1
-0.653437 3.024825 -0.714445 55 2
-0.721579 3.340260 0.179094 26 3
-0.691468 3.200873 -0.636539 66 4
-0.721502 3.339905 0.298944 25 5
-0.695320 3.218706 -0.521553 56 6
-1.099458 5.089496 0.639327 6 7
-0.699998 3.240358 -0.407044 50 8
-0.702992 3.254217 -0.291274 44 10
-0.707240 3.273884 -0.175535 31 12
-0.712748 3.299378 -0.058919 26 14
-1.082207 5.009644 1.373294 17 15
-0.615102 2.944329 -0.805963 10 0
-0.693953 3.321770 0.059233 26 1
-0.628848 3.010127 -0.709945 55 2
-0.697600 3.339228 0.178780 26 3
-0.670467 3.209349 -0.637302 60 4
-0.700381 3.352540 0.299641 23 5
-0.674203 3.227232 -0.522178 64 6
-1.069660 5.120180 0.642251 4 7
-0.676301 3.237275 -0.406069 49 8
-1.053518 5.042912 0.815962 12 9
-0.680825 3.258926 -0.291274 45 10
-1.059499 5.071539 1.007090 21 11
-0.683305 3.270802 -0.175116 35 12
-1.072389 5.133239 1.210687 2 13
-0.691091 3.308068 -0.058989 25 14
-1.070996 5.126573 1.403317 5 15
-0.614707 2.942437 -0.805445 9 0
-0.693953 3.321770 0.059233 24 1
-0.630840 3.019665 -0.712195 58 2
-0.695967 3.331408 0.178361 25 3
-0.670467 3.209349 -0.637302 57 4
-0.704456 3.372043 0.301385 25 5
-0.675011 3.231099 -0.522804 56 6
-0.675489 3.233389 -0.405581 50 8
-1.063213 5.089319 0.823471 4 9
-0.682862 3.268678 -0.292146 50 10
-1.089208 5.213750 1.035330 11 11
-0.684939 3.278622 -0.175535 35 12
-1.056847 5.058844 1.193140 8 13
-0.690273 3.304153 -0.058919 25 14
-1.049663 5.024458 1.375364 14 15
-0.592624 2.939082 -0.803374 11 0
-0.673119 3.338295 0.059443 27 1
-0.609360 3.022084 -0.711745 55 2
-0.672694 3.336185 0.178361 23 3
-0.645719 3.202404 -0.635012 49 4
-0.677748 3.361253 0.299990 23 5
-0.654782 3.247351 -0.524681 58 6
-1.016234 5.039955 0.631283 11 7
-0.650547 3.226350 -0.404119 42 8
-1.032735 5.121790 0.827538 4 9
-0.658845 3.267506 -0.291623 46 10
-1.054726 5.230849 1.037238 11 11
-0.661245 3.279408 -0.175325 38 12
-0.665609 3.301050 -0.058780 25 14
-1.033655 5.126350 1.401246 7 15
-0.592624 2.939082 -0.803374 10 0
-0.672329 3.334374 0.059373 24 1
-0.610130 3.025905 -0.712645 55 2
-0.674273 3.344017 0.178780 23 3
-0.646107 3.204328 -0.635394 46 4
-0.676961 3.357347 0.299641 25 5
-0.653220 3.239605 -0.523430 55 6
-1.036638 5.141143 0.643958 4 7
-0.656825 3.257484 -0.408019 50 8
-0.657270 3.259693 -0.290926 46 10
-1.021741 5.067265 1.004800 31 11
-0.664403 3.295070 -0.176163 31 12
-0.666400 3.304971 -0.058850 25 14
-1.014562 5.031663 1.375364 14 15
-0.572091 2.943148 -0.803374 10 0
-0.647508 3.331135 0.059233 23 1
-0.588247 3.026265 -0.711745 51 2
-0.652816 3.358446 0.179303 26 3
-0.624470 3.212615 -0.636157 51 4
-0.654266 3.365903 0.299990 23 5
-0.630587 3.244087 -0.523430 58 6
-1.003372 5.161896 0.645664 4 7
-0.632931 3.256145 -0.407287 43 8
-0.981876 5.051312 0.815024 13 9
-0.635258 3.268114 -0.291274 45 10
-0.980346 5.043440 0.998694 23 11
-0.639859 3.291787 -0.175744 34 12
-1.016604 5.229968 1.230032 4 13
-0.644837 3.317394 -0.058989 25 14
-0.991574 5.101203 1.392447 11 15
-0.569879 2.931770 -0.800268 9 0
-1.015713 5.225387 0.092917 6 1
-0.650911 3.348643 0.178780 26 3
-0.626717 3.224179 -0.638447 51 4
-0.654266 3.365903 0.299990 25 5
-0.630210 3.242148 -0.523117 51 6
-0.636778 3.275937 -0.291972 39 10
-1.016683 5.230377 1.035711 9 11
-0.638335 3.283944 -0.175325 35 12
-0.984254 5.063542 1.190891 17 13
-0.645600 3.321321 -0.059059 26 14
-0.984571 5.065172 1.382611 18 15
-0.546910 2.922385 -0.796645 7 0
-0.973691 5.202867 0.092393 6 1
-0.629480 3.363593 -0.790028 4 2
-0.626782 3.349179 0.178570 23 3
-0.603110 3.222686 -0.637302 47 4
-0.633684 3.386056 0.301385 23 5
-0.606470 3.240643 -0.522178 52 6
-0.943575 5.041946 0.629821 14 7
-0.853380 4.559995 -0.569617 12 8
-0.953128 5.092994 0.820655 6 9
-0.851020 4.547381 -0.404751 11 10
-0.977254 5.221909 1.032658 14 11
-0.615760 3.290284 -0.175430 30 12
-0.944219 5.045389 1.185042 21 13
-0.621661 3.321815 -0.058989 25 14
-0.959135 5.125091 1.397105 13 15
-0.547976 2.928081 -0.798198 7 0
-0.970012 5.183211 0.092044 13 1
-0.633064 3.382747 -0.794527 4 2
-0.627517 3.353105 0.178780 25 3
-0.603471 3.224616 -0.637684 48 4
-0.632218 3.378223 0.300687 25 5
-0.608650 3.252293 -0.524055 51 6
-1.787096 9.549257 1.192857 6 7
-0.854111 4.563897 -0.570105 12 8
-0.950948 5.081344 0.818778 9 9
-0.853585 4.561090 -0.405971 14 10
-0.952697 5.090686 1.006708 33 11
-0.616128 3.292247 -0.175535 31 12
-0.620190 3.313953 -0.058850 25 14
-0.947764 5.064327 1.380541 10 15
-0.526663 2.924138 -0.796127 7 0
-0.916986 5.091292 0.090299 60 1
-0.611406 3.394650 -0.796327 4 2
-0.605741 3.363196 0.179094 26 3
-0.582204 3.232513 -0.638447 46 4
-0.607795 3.374604 0.299990 23 5
-0.586499 3.256361 -0.524055 49 6
-0.919086 5.102954 0.636645 6 7
-0.824433 4.577420 -0.571080 12 8
-0.912837 5.068258 0.815649 15 9
-0.818987 4.547186 -0.404228 14 10
-0.922547 5.122171 1.011669 25 11
-0.595828 3.308158 -0.176163 31 12
-0.926435 5.143757 1.206637 4 13
-0.596909 3.314162 -0.058780 20 14
-0.912927 5.068759 1.380023 14 15
-0.527347 2.927941 -0.797163 7 0
-0.936835 5.201502 0.092253 6 1
-0.608642 3.379307 -0.792727 4 2
-0.607511 3.373024 0.179617 26 3
-0.582900 3.236377 -0.639210 46 4
-0.607795 3.374604 0.299990 23 5
-0.584398 3.244696 -0.522178 46 6
-0.914512 5.077556 0.633477 11 7
-0.823729 4.573513 -0.570592 12 8
-0.820400 4.555029 -0.404926 16 10
-0.941339 5.226508 1.032277 13 11
-0.595120 3.304227 -0.175953 34 12
-0.922858 5.123896 1.395035 14 15
-0.508355 2.943061 -0.800268 7 0
-0.905717 5.243542 0.092882 16 1
-0.583118 3.375894 -0.790928 4 2
-0.581999 3.369413 0.179198 25 3
-0.561731 3.252073 -0.641500 45 4
-0.584310 3.382794 0.300339 23 5
-0.561837 3.252688 -0.522804 45 6
-0.876465 5.074190 0.632258 14 7
-0.790305 4.575378 -0.570105 11 8
-0.881589 5.103858 0.820342 7 9
-0.788462 4.564710 -0.405274 16 10
-0.885202 5.124772 1.010906 6 11
-0.570440 3.302497 -0.175639 30 12
-0.876999 5.077283 1.189541 12 13
-0.878935 5.088488 1.383647 19 15
-0.508684 2.944965 -0.800786 7 0
-0.886316 5.131223 0.090892 30 1
-0.584777 3.385496 -0.793177 4 2
-0.579959 3.357604 0.178570 26 3
-0.561062 3.248204 -0.640737 45 4
-0.585666 3.390647 0.301036 22 5
-0.563182 3.260474 -0.524055 46 6
-0.788278 4.563641 -0.568642 10 8
-0.879908 5.094126 0.818778 7 9
-0.789141 4.568637 -0.405623 14 10
-0.570440 3.302497 -0.175639 28 12
-0.780802 4.520363 -0.080072 73 14
-0.895047 5.181767 1.409011 7 15
-0.487165 2.942727 -0.799233 7 0
-0.845573 5.107693 0.090369 27 1
-0.564628 3.410644 -0.798126 4 2
-0.558135 3.371423 0.179094 26 3
-0.536448 3.240420 -0.638447 45 4
-0.563283 3.402516 0.301733 22 5
-0.542341 3.276020 -0.525933 41 6
-0.842964 5.091936 0.633721 6 7
-0.758668 4.582742 -0.570349 12 8
-0.843355 5.094298 0.817839 16 9
-0.756575 4.570104 -0.405274 14 10
-0.859343 5.190871 1.022736 12 11
-0.547697 3.308369 -0.175744 31 12
-0.849489 5.131346 1.200789 6 13
-0.747266 4.513867 -0.079862 65 14
-0.841180 5.081159 1.380023 16 15
-0.486534 2.938915 -0.798198 7 0
-0.871374 5.263547 0.093126 17 1
-0.564310 3.408721 -0.797676 4 2
-0.557809 3.369453 0.178989 23 3
-0.536769 3.242357 -0.638829 41 4
-0.560679 3.386791 0.300339 22 5
-0.541696 3.272122 -0.525307 42 6
-0.842316 5.088019 0.633233 11 7
-0.758344 4.580783 -0.570105 12 8
-0.755274 4.562241 -0.404577 14 10
-0.867680 5.241230 1.032658 12 11
-0.550959 3.328074 -0.176791 35 12
-0.747266 4.513867 -0.079862 66 14
-0.844020 5.098312 1.384682 4 15
-0.467032 2.942077 -0.798198 7 0
-0.831116 5.235636 0.092533 16 1
-0.542301 3.416239 -0.798576 4 2
-0.537328 3.384913 0.179617 25 3
-0.516176 3.251663 -0.639973 42 4
-0.538830 3.394370 0.300687 22 5
-0.518744 3.267839 -0.524055 42 6
-0.808241 5.091533 0.632989 11 7
-0.728568 4.589634 -0.570592 12 8
-0.808621 5.093927 0.816901 12 9
-0.725624 4.571085 -0.404926 14 10
-0.827051 5.210029 1.025408 13 11
-0.527308 3.321792 -0.176268 30 12
-0.809021 5.096450 1.191341 6 13
-0.717939 4.522673 -0.079932 65 14
-0.803222 5.059915 1.372776 15 15
-0.467637 2.945893 -0.799233 7 0
-0.811992 5.115163 0.090403 48 1
-0.540468 3.404691 -0.795877 4 2
-0.536702 3.380969 0.179408 25 3
-0.516484 3.253602 -0.640355 39 4
-0.538205 3.390435 0.300339 23 5
-0.518744 3.267839 -0.524055 40 6
-0.826914 5.209166 0.647614 3 7
-0.728257 4.587673 -0.570349 12 8
-0.813576 5.125142 0.821907 4 9
-0.724374 4.563214 -0.404228 14 10
-0.806737 5.082057 1.000221 36 11
-0.525430 3.309956 -0.175639 30 12
-0.827047 5.210004 1.217885 4 13
-0.718566 4.526623 -0.080002 66 14
-0.828360 5.218276 1.415740 8 15
-0.446608 2.953062 -0.800268 7 0
-0.786435 5.200067 0.091800 22 1
-0.516079 3.412415 -0.796777 4 2
-0.513099 3.392711 0.179826 25 3
-0.492620 3.257301 -0.640355 41 4
-0.515125 3.406109 0.301385 23 5
-0.496843 3.285226 -0.526246 39 6
-0.692827 4.581112 -0.568886 11 8
-0.771850 5.103623 0.817526 12 9
-0.692693 4.580222 -0.405274 14 10
-0.502944 3.325568 -0.176268 28 12
-0.773972 5.117659 1.194940 8 13
-0.685066 4.529792 -0.079967 71 14
-0.771887 5.103869 1.383129 22 15
-0.445453 2.945422 -0.798198 7 0
-0.795705 5.261360 0.092882 19 1
-0.516661 3.416268 -0.797676 4 2
-0.511904 3.384812 0.179408 23 3
-0.490565 3.243712 -0.637684 38 4
-0.515721 3.410049 0.301733 23 5
-0.496548 3.283273 -0.525933 41 6
-0.774162 5.118911 0.635670 11 7
-0.693718 4.587000 -0.569617 12 8
-0.781007 5.164172 0.827225 3 9
-0.691501 4.572342 -0.404577 14 10
-0.792948 5.243128 1.030750 12 11
-0.503542 3.329517 -0.176477 28 12
-0.683870 4.521883 -0.079827 71 14
-0.780553 5.161173 1.398658 15 15
-0.424879 2.948460 -0.798198 7 0
-0.754676 5.237098 0.092358 16 1
-0.493355 3.423650 -0.798576 4 2
-0.489401 3.396210 0.179826 25 3
-0.469028 3.254831 -0.639210 37 4
-0.489344 3.395818 0.300164 20 5
-0.473332 3.284704 -0.525620 39 6
-0.737840 5.120262 0.635183 9 7
-0.661961 4.593696 -0.569861 11 8
-0.658426 4.569170 -0.403880 14 10
-0.748204 5.192183 1.019683 16 11
-0.480000 3.330975 -0.176372 35 12
-0.652284 4.526547 -0.079827 71 14
-0.735410 5.103397 1.381576 15 15
-0.425430 2.952284 -0.799233 7 0
-0.738704 5.126260 0.090403 52 1
-0.492799 3.419792 -0.797676 4 2
-0.490540 3.404118 0.180245 25 3
-0.470428 3.264547 -0.641118 39 4
-0.489628 3.397790 0.300339 22 5
-0.471924 3.274928 -0.524055 45 6
-0.746334 5.179205 0.642495 4 7
-0.662527 4.597625 -0.570349 11 8
-0.658995 4.573114 -0.404228 14 10
-0.733643 5.091138 0.999839 34 11
-0.480285 3.332952 -0.176477 30 12
-0.748787 5.196232 1.212036 2 13
-0.652570 4.528526 -0.079862 55 14
-0.743125 5.156936 1.396070 2 15
-0.405316 2.951213 -0.798198 7 0
-0.721561 5.253874 0.092568 17 1
-0.469578 3.419124 -0.796777 4 2
-0.465236 3.387509 0.179198 23 3
-0.448767 3.267595 -0.641118 36 4
-0.469253 3.416753 0.301733 23 5
-0.451001 3.283857 -0.524994 37 6
-0.630941 4.594051 -0.569374 11 8
-0.703379 5.121486 0.818778 12 9
-0.629737 4.585279 -0.404926 16 10
-0.722035 5.257327 1.031513 15 11
-0.457084 3.328149 -0.176058 30 12
-0.704235 5.127720 1.194940 8 13
-0.461995 3.363906 -0.059268 13 14
-0.405842 2.955040 -0.799233 7 0
-0.722377 5.259818 0.092672 19 1
-0.471434 3.432638 -0.799926 4 2
-0.466323 3.395424 0.179617 22 3
-0.447432 3.257869 -0.639210 33 4
-0.470337 3.424649 0.302430 23 5
-0.451538 3.287771 -0.525620 37 6
-0.703867 5.125042 0.635183 14 7
-0.629861 4.586185 -0.568399 10 8
-0.716011 5.213465 0.833483 6 9
-0.629737 4.585279 -0.404926 14 10
-0.719364 5.237876 1.027697 17 11
-0.456540 3.324191 -0.175849 30 12
-0.460090 3.350038 -0.059024 27 14
-0.707069 5.148354 1.392447 28 15
-0.384703 2.953970 -0.798198 7 0
-0.672985 5.167568 0.090962 65 1
-0.442865 3.400577 0.179722 23 3
-0.423916 3.255074 -0.638065 36 4
-0.445902 3.423898 0.302082 23 5
-0.429340 3.296720 -0.526558 32 6
-0.667045 5.121957 0.634208 56 7
-0.665538 5.110388 1.001747 46 11
-0.435385 3.343142 -0.176686 28 12
-0.665903 5.113187 1.190441 40 13
-0.435658 3.345237 -0.058884 25 14
-0.662627 5.088032 1.374847 51 15
-0.384703 2.953970 -0.798198 7 0
-0.664463 5.102131 0.089810 47 1
-0.503579 3.866776 -0.900254 12 2
-0.444155 3.410480 0.180245 23 3
-0.425437 3.266754 -0.640355 36 4
-0.444359 3.412043 0.301036 22 5
-0.429085 3.294761 -0.526246 36 6
-0.662687 5.088493 0.630064 48 7
-0.433246 3.326713 -0.411918 3 8
-0.665311 5.108642 0.815962 69 9
-0.663510 5.094813 0.998694 51 11
-0.435385 3.343142 -0.176686 30 12
-0.664644 5.103526 1.188192 57 13
-0.436433 3.351186 -0.058989 27 14
-0.662876 5.089948 1.375364 74 15
-0.363039 2.956711 -0.798198 7 0
-0.418461 3.408086 -0.792727 3 2
-0.418656 3.409679 0.180036 22 3
-0.401479 3.269785 -0.640355 31 4
-0.420792 3.427074 0.302082 23 5
-0.403958 3.289975 -0.524994 36 6
-0.626094 5.099125 0.630796 50 7
-0.627123 5.107500 0.815024 54 9
-0.409623 3.336107 -0.294063 42 10
-0.624470 5.085899 0.996023 43 11
-0.410867 3.346243 -0.176686 28 12
-0.626504 5.102458 1.186842 48 13
-0.414293 3.374143 -0.059338 23 14
-0.625312 5.092752 1.374847 59 15
-0.364216 2.966298 -0.800786 7 0
-0.416974 3.395976 0.059722 20 1
-0.419648 3.417757 -0.794977 4 2
-0.418656 3.409679 0.180036 23 3
-0.405068 3.299015 -0.646079 36 4
-0.421763 3.434984 0.302779 23 5
-0.404440 3.293896 -0.525620 36 6
-0.626336 5.101096 0.631039 61 7
-0.409090 3.331770 -0.412162 29 8
-0.627604 5.111421 0.815649 61 9
-0.408894 3.330175 -0.293541 33 10
-0.625427 5.093694 0.997549 62 11
-0.409894 3.338314 -0.176268 28 12
-0.626979 5.106327 1.187742 61 13
-0.414293 3.374143 -0.059338 25 14
-0.626724 5.104257 1.377953 78 15
-0.344535 2.968648 -0.800786 7 0
-0.395594 3.408598 0.059897 27 1
-0.397421 3.424337 -0.795877 4 2
-0.396033 3.412381 0.180036 22 3
-0.382274 3.293828 -0.644553 36 4
-0.398972 3.437706 0.302779 22 5
-0.383724 3.306317 -0.527184 32 6
-0.592033 5.101193 0.630552 61 7
-0.386755 3.332438 -0.411918 37 8
-0.593462 5.113509 0.815336 67 9
-0.388407 3.346667 -0.294761 37 10
-0.592310 5.103580 0.998694 66 11
-0.388205 3.344927 -0.176477 28 12
-0.591076 5.092950 1.183692 68 13
-0.391445 3.372844 -0.059268 23 14
-0.593081 5.110220 1.378470 83 15
-0.343866 2.962892 -0.799233 7 0
-0.395364 3.406612 0.059862 24 1
-0.398544 3.434015 -0.798126 4 2
-0.395803 3.410397 0.179931 22 3
-0.381595 3.287977 -0.643408 34 4
-0.398972 3.437706 0.302779 23 5
-0.384407 3.312204 -0.528123 33 6
-0.592948 5.109081 0.631527 47 7
-0.383551 3.304832 -0.408506 28 8
-0.591185 5.093887 0.812208 45 9
-0.387258 3.336771 -0.293889 31 10
-0.592989 5.109431 0.999839 44 11
-0.389126 3.352863 -0.176896 28 12
-0.592873 5.108436 1.187292 40 13
-0.391445 3.372844 -0.059268 23 14
-0.593081 5.110220 1.378470 51 15
-0.321820 2.957594 -0.797163 7 0
-0.370544 3.405378 0.059792 27 1
-0.374593 3.442591 -0.799476 4 2
-0.372253 3.421084 0.180350 22 3
-0.358270 3.292576 -0.643790 32 4
-0.373069 3.428589 0.301733 23 5
-0.359627 3.305051 -0.526558 32 6
-0.556803 5.117140 0.632014 60 7
-0.362899 3.335120 -0.411918 30 8
-0.554932 5.099950 0.812521 58 9
-0.362078 3.327573 -0.292843 31 10
-0.555350 5.103785 0.997931 57 11
-0.365555 3.359533 -0.177105 28 12
-0.557357 5.122235 1.189541 55 13
-0.366217 3.365618 -0.059094 25 14
-0.555453 5.104731 1.375882 64 15
-0.322238 2.961435 -0.798198 7 0
-0.369246 3.393450 0.059583 26 1
-0.375015 3.446466 -0.800376 5 2
-0.372253 3.421084 0.180350 22 3
-0.359756 3.306238 -0.646461 34 4
-0.373285 3.430569 0.301907 21 5
-0.359413 3.303087 -0.526246 33 6
-0.557232 5.121087 0.632502 42 7
-0.362684 3.333147 -0.411675 28 8
-0.557283 5.121552 0.815962 51 9
-0.362509 3.331535 -0.293192 33 10
-0.555350 5.103785 0.997931 48 11
-0.364691 3.351590 -0.176686 27 12
-0.557146 5.120297 1.189091 51 13
-0.367732 3.379534 -0.059338 27 14
-0.555453 5.104731 1.375882 61 15
-0.301555 2.963613 -0.798198 8 0
-0.346356 3.403903 0.059722 24 1
-0.348577 3.425735 -0.794977 4 2
-0.348764 3.427574 0.180559 22 3
-0.336864 3.310622 -0.646843 32 4
-0.350334 3.443003 0.302779 23 5
-0.336545 3.307481 -0.526558 31 6
-0.534127 5.249271 0.647857 17 7
-0.340410 3.345472 -0.412893 30 8
-0.531712 5.225545 0.831918 16 9
-0.340048 3.341913 -0.293889 30 10
-0.528251 5.191524 1.014341 24 11
-0.341688 3.358029 -0.176896 28 12
-0.535590 5.263651 1.221484 10 13
-0.345748 3.397935 -0.059617 23 14
-0.529579 5.204581 1.401764 14 15
-0.302337 2.971301 -0.800268 7 0
-0.347165 3.411861 0.059862 26 1
-0.349169 3.431551 -0.796327 4 2
-0.347956 3.419626 0.180140 7 3
-0.335871 3.300856 -0.644934 28 4
-0.351141 3.450931 0.303476 22 5
-0.337544 3.317307 -0.528123 30 6
-0.531112 5.219647 0.644201 4 7
-0.337798 3.319799 -0.409725 20 8
-0.523514 5.144970 0.819091 15 9
-0.340855 3.349842 -0.294586 31 10
-0.524872 5.158320 1.007853 24 11
-0.342699 3.367964 -0.177419 34 12
-0.344534 3.385998 -0.059408 23 14
-0.526450 5.173830 1.393482 16 15
-0.281067 2.973388 -0.800268 7 0
-0.323495 3.422221 0.060001 27 1
-0.325155 3.439782 -0.797676 4 2
-0.324416 3.431970 0.180664 5 3
-0.311687 3.297311 -0.643790 29 4
-0.326625 3.455339 0.303651 21 5
-0.487770 5.160073 0.636402 16 7
-0.317583 3.359680 -0.414356 7 8
-0.316500 3.348228 -0.294238 30 10
-0.499771 5.287034 1.032277 13 11
-0.318402 3.368341 -0.177314 27 12
-0.485623 5.137362 1.191341 19 13
-0.319166 3.376432 -0.059199 26 14
-0.487414 5.156308 1.387788 10 15
-0.280704 2.969541 -0.799233 7 0
-0.322930 3.416248 0.059897 24 1
-0.325521 3.443662 -0.798576 4 2
-0.312242 3.303175 -0.644934 28 4
-0.325125 3.439471 0.302256 21 5
-0.313426 3.315704 -0.527497 4 6
-0.486836 5.150192 0.635183 13 7
-0.315901 3.341893 -0.412162 6 8
-0.488171 5.164318 0.821594 6 9
-0.316313 3.346244 -0.294063 28 10
-0.498293 5.271398 1.029224 15 11
-0.319153 3.376295 -0.177733 27 12
-0.486723 5.149003 1.194040 14 13
-0.319919 3.384395 -0.059338 23 14
-0.483960 5.119766 1.377953 18 15
-0.260303 2.975278 -0.800268 7 0
-0.298724 3.414435 0.059827 24 1
-0.300963 3.440027 -0.797226 4 2
-0.301319 3.444099 0.181187 42 3
-0.289173 3.305274 -0.644934 28 4
-0.301105 3.441657 0.302256 21 5
-0.291131 3.327651 -0.529061 6 6
-0.461077 5.270140 0.649564 3 7
-0.292217 3.340063 -0.411675 7 8
-0.452450 5.171535 0.822220 7 9
-0.292770 3.346386 -0.293889 28 10
-0.450700 5.151534 1.005182 21 11
-0.295226 3.374461 -0.177524 27 12
-0.297155 3.396507 -0.059513 23 14
-0.459486 5.251962 1.412634 4 15
-0.260639 2.979127 -0.801304 7 0
-0.299247 3.420412 0.059932 24 1
-0.300793 3.438086 -0.796777 4 2
-0.300623 3.436141 0.180768 23 3
-0.289687 3.311142 -0.646079 25 4
-0.302147 3.453566 0.303302 20 5
-0.290615 3.321747 -0.528123 6 6
-0.452599 5.173241 0.637620 6 7
-0.293082 3.349950 -0.412893 5 8
-0.452450 5.171535 0.822220 13 9
-0.293117 3.350355 -0.294238 28 10
-0.452069 5.167180 1.008235 9 11
-0.295575 3.378441 -0.177733 27 12
-0.453992 5.189161 1.202588 2 13
-0.298027 3.406467 -0.059687 26 14
-0.449215 5.134567 1.381058 15 15
-0.240667 2.984683 -0.802339 7 0
-0.276763 3.432335 0.060106 24 1
-0.277698 3.443938 -0.797676 4 2
-0.267459 3.316951 -0.646843 25 4
-0.279435 3.465472 0.304174 21 5
-0.269269 3.339400 -0.530626 39 6
-0.415623 5.154436 0.634939 6 7
-0.269477 3.341974 -0.411675 5 8
-0.271268 3.364189 -0.295284 27 10
-0.426041 5.283638 1.030369 13 11
-0.271610 3.368430 -0.177105 26 12
-0.274191 3.400444 -0.059548 27 14
-0.420624 5.216455 1.402282 10 15
-0.240356 2.980832 -0.801304 7 0
-0.277406 3.440308 0.060246 23 1
-0.278325 3.451708 -0.799476 4 2
-0.266986 3.311080 -0.645698 28 4
-0.278954 3.459514 0.303651 21 5
-0.268952 3.335462 -0.530000 43 6
-0.415144 5.148500 0.634208 13 7
-0.270274 3.351867 -0.412893 5 8
-0.271268 3.364189 -0.295284 27 10
-0.425725 5.279724 1.029605 12 11
-0.272252 3.376393 -0.177524 27 12
-0.274513 3.404430 -0.059617 23 14
-0.414258 5.137506 1.381058 16 15
-0.219634 2.976619 -0.799751 7 0
-0.253688 3.438128 0.060176 23 1
-0.255110 3.457410 -0.800376 4 2
-0.254701 3.451866 0.181396 46 3
-0.244297 3.310862 -0.645316 25 4
-0.255106 3.457359 0.303302 20 5
-0.246242 3.337216 -0.530000 29 6
-0.248183 3.363528 -0.414112 4 8
-0.383026 5.191006 0.824410 4 9
-0.247776 3.358009 -0.294586 27 10
-0.381254 5.166982 1.007090 29 11
-0.250145 3.390119 -0.178152 26 12
-0.889659 12.057205 2.791193 2 13
-0.250745 3.398243 -0.059478 21 14
-0.219492 2.974692 -0.799233 7 0
-0.253099 3.430151 0.060036 23 1
-0.254393 3.447692 -0.798126 4 2
-0.255436 3.461825 0.181920 48 3
-0.245308 3.324568 -0.647987 28 4
-0.255400 3.461333 0.303651 20 5
-0.245224 3.323426 -0.527810 21 6
-0.380236 5.153186 0.634452 9 7
-0.249059 3.375406 -0.415574 4 8
-0.381573 5.171305 0.821281 10 9
-0.248069 3.361983 -0.294935 26 10
-0.388622 5.266836 1.026552 13 11
-0.250439 3.394102 -0.178361 26 12
-0.382450 5.183199 1.199889 6 13
-0.251480 3.408214 -0.059652 23 14
-0.199106 2.981935 -0.800786 7 0
-0.229412 3.435825 0.060106 24 1
-0.229668 3.439662 -0.795877 4 2
-0.230996 3.459538 0.181710 50 3
-0.222092 3.326200 -0.647987 24 4
-0.232025 3.474959 0.304696 20 5
-0.222937 3.338854 -0.530000 16 6
-0.344383 5.157696 0.634696 8 7
-0.225224 3.373101 -0.415087 6 8
-0.350857 5.254654 0.834109 3 9
-0.224592 3.363633 -0.294935 26 10
-0.352104 5.273339 1.027316 6 11
-0.226205 3.387797 -0.177942 26 12
-0.227680 3.409887 -0.059652 23 14
-0.345185 5.169715 1.388305 10 15
-0.199363 2.985790 -0.801821 7 0
-0.229545 3.437820 0.060141 23 1
-0.229798 3.441607 -0.796327 4 2
-0.230197 3.447582 0.181082 52 3
-0.222092 3.326200 -0.647987 24 4
-0.232025 3.474959 0.304696 20 5
-0.222937 3.338854 -0.530000 4 6
-0.344912 5.165619 0.635670 8 7
-0.224034 3.355275 -0.412893 5 8
-0.225654 3.379537 -0.296330 26 10
-0.345172 5.169518 1.007090 10 11
-0.225939 3.383811 -0.177733 24 12
-0.228213 3.417868 -0.059792 23 14
-0.345185 5.169715 1.388305 9 15
-0.177762 2.983283 -0.800786 6 0
-0.205415 3.447359 0.060281 22 1
-0.206208 3.460671 -0.800376 4 2
-0.205640 3.451134 0.181187 47 3
-0.197935 3.321824 -0.646843 25 4
-0.207390 3.480508 0.305045 21 5
-0.199627 3.350223 -0.531564 11 6
-0.311835 5.233346 0.643714 3 7
-0.199900 3.354811 -0.412650 4 8
-0.309721 5.197873 0.824722 3 9
-0.200754 3.369132 -0.295284 26 10
-0.307937 5.167935 1.006327 31 11
-0.202195 3.393316 -0.178152 24 12
-0.310529 5.211431 1.205288 2 13
-0.203036 3.407436 -0.059583 22 14
-0.311860 5.233762 1.404870 2 15
-0.177418 2.977498 -0.799233 7 0
-0.204701 3.435382 0.060071 23 1
-0.206324 3.462616 -0.800826 4 2
-0.206115 3.459109 0.181606 37 3
-0.198051 3.323784 -0.647224 23 4
-0.206916 3.472553 0.304348 20 5
-0.199274 3.344307 -0.530626 27 6
-0.201435 3.380571 -0.415818 4 8
-0.307959 5.168295 0.820029 7 9
-0.200754 3.369132 -0.295284 24 10
-0.315528 5.295321 1.031132 11 11
-0.202432 3.397304 -0.178361 24 12
-0.307284 5.156963 1.192690 8 13
-0.203274 3.411428 -0.059652 22 14
-0.157350 2.982495 -0.800268 7 0
-0.182050 3.450675 0.060316 23 1
-0.182647 3.461994 -0.800376 4 2
-0.175940 3.334858 -0.649132 22 4
-0.183484 3.477860 0.304696 21 5
-0.176402 3.343614 -0.530313 32 6
-0.273068 5.175878 0.636402 6 7
-0.178420 3.381864 -0.415818 5 8
-0.275686 5.225505 0.828790 4 9
-0.178236 3.378379 -0.295981 24 10
-0.279269 5.293425 1.030369 12 11
-0.179303 3.398603 -0.178361 26 12
-0.272893 5.172558 1.195840 19 13
-0.180470 3.420721 -0.059792 21 14
-0.271342 5.143164 1.380023 18 15
-0.157553 2.986353 -0.801304 7 0
-0.181945 3.448678 0.060281 22 1
-0.182236 3.454210 -0.798576 4 2
-0.182565 3.460432 0.181606 3 3
-0.176664 3.348581 -0.651803 23 4
-0.183169 3.471891 0.304174 18 5
-0.176714 3.349531 -0.531251 29 6
-0.272754 5.169931 0.635670 8 7
-0.178315 3.379882 -0.415574 4 8
-0.273813 5.189998 0.823158 6 9
-0.178656 3.386337 -0.296678 26 10
-0.273787 5.189517 1.010143 23 11
-0.179303 3.398603 -0.178361 26 12
-0.274843 5.209532 1.204388 4 13
-0.180891 3.428709 -0.059932 21 14
-0.136180 2.987404 -0.801304 7 0
-0.157626 3.457882 0.060420 23 1
-0.157603 3.457372 -0.799026 4 2
-0.158071 3.467635 0.181920 5 3
-0.152250 3.339954 -0.649895 22 4
-0.159318 3.495007 0.306091 21 5
-0.153100 3.358603 -0.532503 27 6
-0.238283 5.227275 0.642495 4 7
-0.153673 3.371156 -0.414356 5 8
-0.237477 5.209585 0.825974 4 9
-0.154601 3.391510 -0.297027 24 10
-0.235036 5.156042 1.003274 15 11
-0.154796 3.395809 -0.178152 26 12
-0.239510 5.254193 1.214286 2 13
-0.156169 3.425920 -0.059862 21 14
-0.237874 5.218308 1.399693 3 15
-0.136267 2.989334 -0.801821 7 0
-0.157626 3.457882 0.060420 22 1
-0.157692 3.459319 -0.799476 4 2
-0.158253 3.471626 0.182129 5 3
-0.151803 3.330148 -0.647987 23 4
-0.159409 3.496997 0.306265 18 5
-0.154215 3.383054 -0.415818 5 8
-0.236217 5.181958 0.821594 7 9
-0.154238 3.383548 -0.296330 26 10
-0.240400 5.273715 1.026171 5 11
-0.155160 3.403789 -0.178570 24 12
-0.235339 5.162698 1.193140 10 13
-0.155987 3.421925 -0.059792 21 14
-0.115022 2.980560 -0.799233 7 0
-0.133790 3.466891 0.060560 22 1
-0.133687 3.464230 -0.800376 4 2
-0.128929 3.340935 -0.649895 22 4
-0.134761 3.492052 0.305742 20 5
-0.130030 3.369460 -0.534067 6 6
-0.200176 5.187155 0.637377 11 7
-0.130899 3.391983 -0.416793 10 8
-0.200187 5.187428 0.822220 6 9
-0.130920 3.392506 -0.297027 24 10
-0.204712 5.304691 1.031895 11 11
-0.132010 3.420756 -0.179408 24 12
-0.199592 5.172004 1.194940 14 13
-0.132402 3.430923 -0.059932 22 14
-0.198830 5.152277 1.381576 18 15
-0.115246 2.986352 -0.800786 6 0
-0.133559 3.460896 0.060455 23 1
-0.133913 3.470072 -0.801726 4 2
-0.134782 3.492604 0.183176 20 3
-0.129384 3.352706 -0.652185 22 4
-0.134607 3.488070 0.305394 18 5
-0.129878 3.365512 -0.533442 21 6
-0.201248 5.214926 0.640789 4 7
-0.131206 3.399917 -0.417768 21 8
-0.200263 5.189403 0.822532 6 9
-0.130766 3.388525 -0.296678 26 10
-0.199716 5.175213 1.006708 27 11
-0.131702 3.412773 -0.178989 24 12
-0.132556 3.434920 -0.060001 21 14
-0.201810 5.229494 1.402282 4 15
-0.095560 2.990912 -0.801821 7 0
-0.110538 3.459707 0.060420 20 1
-0.110149 3.447511 -0.796327 4 2
-0.111488 3.489428 0.182967 20 3
-0.107270 3.357415 -0.652948 22 4
-0.111789 3.498843 0.306265 18 5
-0.107554 3.366300 -0.533442 22 6
-0.166086 5.198289 0.638595 6 7
-0.108463 3.394761 -0.417037 21 8
-0.165967 5.194565 0.823158 6 9
-0.108480 3.395291 -0.297201 24 10
-0.168209 5.264725 1.023881 14 11
-0.109192 3.417564 -0.179198 26 12
-0.166219 5.202430 1.201689 6 13
-0.110283 3.451713 -0.060281 22 14
-0.166506 5.211408 1.397105 9 15
-0.095807 2.998635 -0.803892 6 0
-0.110921 3.471699 0.060630 20 1
-0.110522 3.459197 -0.799026 4 2
-0.111105 3.477451 0.182338 20 3
-0.107082 3.351528 -0.651803 21 4
-0.111980 3.504817 0.306788 11 5
-0.107995 3.380120 -0.535632 22 6
-0.165643 5.184401 0.636889 8 7
-0.108273 3.388808 -0.416306 19 8
-0.165778 5.188642 0.822220 6 9
-0.108735 3.403257 -0.297898 24 10
-0.169776 5.313781 1.033422 11 11
-0.109000 3.411575 -0.178884 24 12
-0.165472 5.179057 1.196290 10 13
-0.109644 3.431726 -0.059932 20 14
-0.164840 5.159275 1.383129 22 15
-0.073633 2.991532 -0.801821 6 0
-0.085716 3.482414 0.060804 5 1
-0.085210 3.461863 -0.799476 4 2
-0.082656 3.358111 -0.652948 22 4
-0.083069 3.374897 -0.534693 21 6
-0.127684 5.187460 0.637133 13 7
-0.083576 3.395464 -0.417037 19 8
-0.127496 5.179844 0.820655 13 9
-0.083785 3.403962 -0.297898 20 10
-0.129999 5.281518 1.026934 3 11
-0.084727 3.442232 -0.180454 13 12
-0.127407 5.176235 1.195390 17 13
-0.127967 5.198970 1.393482 14 15
-0.073538 2.987670 -0.800786 6 0
-0.085306 3.465759 -0.800376 4 2
-0.122028 4.957693 0.259900 124 3
-0.082366 3.346335 -0.650659 12 4
-0.121191 4.923695 0.430898 93 5
-0.128660 5.227150 0.642008 3 7
-0.114300 4.643709 -0.570349 8 8
-0.089740 3.645891 -0.191131 4 12
-0.089209 3.624350 -0.063282 3 14
-0.129203 5.249183 1.406940 4 15
-0.053201 2.988101 -0.800786 6 0
-0.063578 3.570890 0.062340 1 1
-0.061784 3.470156 -0.801276 4 2
-0.088424 4.966396 0.260319 131 3
-0.087818 4.932374 0.431595 96 5
-0.082462 4.631524 -0.733678 20 6
-0.083185 4.672167 -0.573761 9 8
-0.092519 5.196393 0.823158 10 9
-0.067140 3.770995 -0.329972 1 10
-0.094572 5.311725 1.032658 12 11
-0.064922 3.646417 -0.191131 5 12
-0.092451 5.192569 1.198989 10 13
-0.064752 3.636869 -0.063492 3 14
-0.092544 5.197789 1.392964 10 15
-0.053339 2.995827 -0.802857 6 0
-0.063471 3.564892 0.062235 1 1
-0.061507 3.454569 -0.797676 4 2
-0.088353 4.962402 0.260110 133 3
-0.072484 4.071144 -0.791476 5 4
-0.087924 4.938351 0.432118 100 5
-0.082919 4.657200 -0.737745 26 6
-0.092726 5.208057 0.639570 6 7
-0.082973 4.660258 -0.572298 9 8
-0.093081 5.227993 0.828164 6 9
-0.067531 3.792908 -0.331889 1 10
-0.094677 5.317614 1.033803 12 11
-0.064745 3.636432 -0.190608 4 12
-0.092555 5.198415 1.200339 8 13
-0.064930 3.646866 -0.063666 3 14
-0.091890 5.161089 1.383129 32 15
-0.031941 2.999995 -0.803892 6 0
-0.037938 3.563255 0.062200 1 1
-0.036909 3.466612 -0.800376 4 2
-0.052755 4.954919 0.259691 133 3
-0.043475 4.083337 -0.793765 4 4
-0.052733 4.952799 0.433338 100 5
-0.049464 4.645823 -0.735868 26 6
-0.055541 5.216527 0.640545 19 7
-0.049517 4.650807 -0.571080 9 8
-0.040515 3.805248 -0.332935 1 10
-0.056539 5.310302 1.032277 9 11
-0.038785 3.642794 -0.190922 4 12
-0.055706 5.232070 1.207987 25 13
-0.038768 3.641239 -0.063562 3 14
-0.055840 5.244680 1.405387 8 15
-0.031900 2.996132 -0.802857 6 0
-0.038130 3.581251 0.062515 1 1
-0.036992 3.474407 -0.802175 4 2
-0.052755 4.954919 0.259691 131 3
-0.043434 4.079412 -0.793002 5 4
-0.052648 4.944830 0.432641 100 5
-0.049548 4.653724 -0.737119 26 6
-0.056132 5.272106 0.647370 21 7
-0.049560 4.654778 -0.571567 8 8
-0.056152 5.273957 0.835360 15 9
-0.040515 3.805248 -0.332935 1 10
-0.038913 3.654777 -0.191550 4 12
-0.055997 5.259351 1.214286 21 13
-0.038790 3.643239 -0.063597 2 14
-0.055491 5.211840 1.396587 20 15
-0.012013 2.992414 -0.801821 6 0
-0.014297 3.561429 0.062165 1 1
-0.014003 3.488217 -0.805325 4 2
-0.019940 4.967144 0.260319 133 3
-0.016369 4.077646 -0.792621 5 4
-0.019835 4.941086 0.432292 100 5
-0.018667 4.650000 -0.736493 26 6
-0.020775 5.175094 0.635427 43 7
-0.018727 4.664929 -0.572786 9 8
-0.020768 5.173470 0.819404 40 9
-0.015140 3.771563 -0.329972 1 10
-0.020751 5.169207 1.004800 60 11
-0.014752 3.674927 -0.192596 4 12
-0.020809 5.183607 1.196740 59 13
-0.014626 3.643416 -0.063597 2 14
-0.020628 5.138684 1.376917 56 15
-0.011997 2.988551 -0.800786 6 0
-0.014393 3.585425 0.062584 1 1
-0.019924 4.963149 0.260110 131 3
-0.016479 4.105132 -0.797963 5 4
-0.019835 4.941086 0.432292 100 5
-0.018627 4.640122 -0.734929 22 6
-0.020791 5.179064 0.635914 58 7
-0.018719 4.662944 -0.572542 8 8
-0.020800 5.181371 0.820655 57 9
-0.015308 3.813403 -0.333632 1 10
-0.020735 5.165281 1.004037 62 11
-0.014768 3.678922 -0.192806 4 12
-0.020809 5.183607 1.196740 48 13
-0.014674 3.655414 -0.063806 2 14
-0.020745 5.167662 1.384682 68 15
0.008902 3.000152 -0.803892 6 0
0.010620 3.579439 0.062480 1 1
0.011934 4.022182 -0.928598 50 2
0.014708 4.957175 0.259796 129 3
0.014684 4.949073 0.432990 100 5
0.015337 5.169158 0.634696 56 7
0.013782 4.645095 -0.570349 4 8
0.015403 5.191267 0.822220 58 9
0.011285 3.803455 -0.332761 3 10
0.015326 5.165299 1.004037 66 11
0.010904 3.674941 -0.192596 4 12
0.015363 5.177780 1.195390 51 13
0.010793 3.637430 -0.063492 1 14
0.015367 5.179271 1.387788 71 15
0.008925 3.007880 -0.805963 6 0
0.010626 3.581439 0.062515 1 1
0.014690 4.951184 0.259482 131 3
0.012099 4.077661 -0.792621 5 4
0.014684 4.949073 0.432990 100 5
0.015337 5.169158 0.634696 60 7
0.011026 3.716076 -0.456279 3 8
0.015379 5.183366 0.820968 64 9
0.011332 3.819394 -0.334155 1 10
0.015367 5.179042 1.006708 70 11
0.010785 3.634995 -0.190503 4 12
0.015357 5.175831 1.194940 61 13
0.010704 3.607435 -0.062968 1 14
0.015390 5.186999 1.389858 78 15
0.030370 3.000012 -0.803892 6 0
0.036295 3.585270 0.062584 1 1
0.035054 3.462734 -0.799476 4 2
0.050160 4.954946 0.259691 131 3
0.041277 4.077470 -0.792621 4 4
0.050098 4.948842 0.432990 100 5
0.047071 4.649798 -0.736493 11 6
0.052547 5.190750 0.637377 48 7
0.036813 3.636503 -0.446529 4 8
0.052310 5.167320 0.818465 54 9
0.040639 4.014459 -0.351238 1 10
0.052486 5.184689 1.007853 50 11
0.036857 3.640816 -0.190817 1 12
0.052433 5.179486 1.195840 46 13
0.036882 3.643258 -0.063597 1 14
0.052507 5.186756 1.389858 66 15
0.030213 2.984558 -0.799751 6 0
0.052671 5.202940 0.090822 8 1
0.035192 3.476374 -0.802625 4 2
0.050201 4.958940 0.259900 131 3
0.041138 4.063728 -0.789949 4 4
0.049977 4.936888 0.431944 100 5
0.047251 4.667576 -0.739309 5 6
0.052587 5.194720 0.637864 52 7
0.036693 3.624593 -0.445067 4 8
0.052310 5.167320 0.818465 55 9
0.038078 3.761438 -0.329100 1 10
0.052406 5.176836 1.006327 62 11
0.037140 3.668777 -0.192282 3 12
0.052315 5.167794 1.193140 55 13
0.052272 5.163575 1.383647 74 15
0.050659 2.992009 -0.801821 6 0
0.058821 3.474106 -0.802175 4 2
0.084055 4.964475 0.260214 129 3
0.061586 3.637389 -0.707138 1 4
0.083715 4.944402 0.432641 100 5
0.087912 5.192257 0.637620 45 7
0.087615 5.174745 0.819717 51 9
0.062668 3.701329 -0.323871 1 10
0.087377 5.160656 1.003274 56 11
0.061841 3.652463 -0.191445 2 12
0.087555 5.171216 1.194040 48 13
0.078267 4.622633 -0.080700 48 14
0.087418 5.163100 1.383647 66 15
0.050789 2.999736 -0.803892 6 0
0.088355 5.218457 0.091102 14 1
0.058656 3.464364 -0.799926 4 2
0.084021 4.962477 0.260110 131 3
0.069031 4.077095 -0.792621 2 4
0.083681 4.942410 0.432467 100 5
0.078720 4.649371 -0.736493 11 6
0.061363 3.624259 -0.445067 18 8
0.078892 4.659531 -0.407715 8 10
0.088008 5.197953 1.010524 28 11
0.078882 4.658937 -0.244200 11 12
0.078200 4.618634 -0.080630 50 14
0.072300 3.001227 -0.804410 6 0
0.129307 5.367625 0.093719 5 1
0.083304 3.458010 -0.798576 4 2
0.119337 4.953763 0.259691 131 3
0.098298 4.080422 -0.793384 4 4
0.119142 4.945668 0.432815 100 5
0.112464 4.668436 -0.739622 19 6
0.126546 5.253016 0.645176 4 7
0.112539 4.671552 -0.573761 9 8
0.125356 5.203608 0.824410 15 9
0.112425 4.666814 -0.408412 12 10
0.128795 5.346354 1.039527 18 11
0.112363 4.664244 -0.244514 15 12
0.125308 5.201627 1.201239 17 13
0.111199 4.615958 -0.080595 56 14
0.125758 5.220281 1.399176 17 15
0.072300 3.001227 -0.804410 6 0
0.128151 5.319646 0.092882 6 1
0.083820 3.479440 -0.803525 4 2
0.119337 4.953763 0.259691 131 3
0.098156 4.074534 -0.792239 4 4
0.119046 4.941684 0.432467 94 5
0.112797 4.682260 -0.741812 26 6
0.126068 5.233171 0.642739 13 7
0.112539 4.671552 -0.573761 11 8
0.125071 5.191759 0.822532 13 9
0.112520 4.670798 -0.408760 12 10
0.128653 5.340466 1.038383 6 11
0.112411 4.666241 -0.244618 16 12
0.125637 5.215264 1.204388 6 13
0.110862 4.601964 -0.080351 48 14
0.125153 5.195174 1.392447 28 15
0.092548 2.994872 -0.802857 6 0
0.107442 3.476841 -0.803075 4 2
0.153115 4.954832 0.259796 129 3
0.126010 4.077696 -0.793002 4 4
0.152680 4.940760 0.432467 100 5
0.144238 4.667562 -0.739622 27 6
0.161809 5.236159 0.643226 6 7
0.144518 4.676630 -0.574492 11 8
0.144003 4.659966 -0.407889 12 10
0.144478 4.675349 -0.245142 16 12
0.161494 5.225975 1.207087 8 13
0.142431 4.609097 -0.080490 45 14
0.163257 5.283024 1.416258 6 15
0.092667 2.998734 -0.803892 6 0
0.163184 5.280674 0.092219 6 1
0.107201 3.469050 -0.801276 4 2
0.153238 4.958824 0.260005 129 3
0.126131 4.081621 -0.793765 5 4
0.152680 4.940760 0.432467 97 5
0.144238 4.667562 -0.739622 27 6
0.161747 5.234175 0.642983 14 7
0.144825 4.686551 -0.575711 12 8
0.163579 5.293458 0.838802 6 9
0.144495 4.675898 -0.409283 14 10
0.161848 5.237426 1.018538 11 11
0.144725 4.683334 -0.245560 16 12
0.160892 5.206497 1.202588 8 13
0.142555 4.613095 -0.080560 43 14
0.163018 5.275301 1.414187 10 15
0.113307 2.990292 -0.801821 6 0
0.201863 5.327364 0.093056 4 1
0.131417 3.468217 -0.801276 4 2
0.187702 4.953642 0.259796 129 3
0.154771 4.084565 -0.794529 4 4
0.187169 4.939573 0.432467 100 5
0.176895 4.668416 -0.739935 28 6
0.200314 5.286477 0.649564 4 7
0.177614 4.687409 -0.575954 12 8
0.177588 4.686721 -0.410329 14 10
0.202645 5.347994 1.040291 16 11
0.176963 4.670235 -0.244932 16 12
0.199228 5.257825 1.214736 8 13
0.175059 4.619980 -0.080700 42 14
0.196990 5.198746 1.393999 34 15
0.113819 3.003806 -0.805445 5 0
0.201485 5.317374 0.092882 6 1
0.131122 3.460428 -0.799476 4 2
0.187627 4.951646 0.259691 131 3
0.154920 4.088489 -0.795292 4 4
0.187320 4.943555 0.432815 97 5
0.177343 4.680260 -0.741812 28 6
0.198209 5.230935 0.642739 14 7
0.177013 4.671540 -0.574005 11 8
0.198286 5.232968 0.829416 6 9
0.177739 4.690703 -0.410678 14 10
0.202348 5.340146 1.038764 18 11
0.176737 4.664247 -0.244618 15 12
0.198269 5.232510 1.208887 8 13
0.175211 4.623977 -0.080770 43 14
0.198818 5.247007 1.406940 15 15
0.135050 2.997124 -0.803892 6 0
0.156495 3.473028 -0.802625 4 2
0.222875 4.946187 0.259482 131 3
0.183465 4.071585 -0.792239 4 4
0.222601 4.940098 0.432641 100 5
0.210919 4.680844 -0.742125 27 6
0.235904 5.235332 0.643470 9 7
0.210973 4.682052 -0.575467 12 8
0.240084 5.328111 0.844746 3 9
0.211659 4.697273 -0.411375 12 10
0.237992 5.281685 1.027697 26 11
0.210918 4.680820 -0.245560 16 12
0.236496 5.248478 1.212936 8 13
0.208024 4.616612 -0.080665 55 14
0.238273 5.287908 1.418328 10 15
0.135050 2.997124 -0.803892 6 0
0.156407 3.471082 -0.802175 4 2
0.222875 4.946187 0.259482 133 3
0.183731 4.077468 -0.793384 5 4
0.222242 4.932137 0.431944 100 5
0.210919 4.680844 -0.742125 27 6
0.235814 5.233348 0.643226 4 7
0.211777 4.699900 -0.577661 12 8
0.236083 5.239309 0.830667 6 9
0.210941 4.681350 -0.409981 14 10
0.237551 5.271878 1.025789 6 11
0.211097 4.684811 -0.245770 16 12
0.236584 5.250425 1.213386 17 13
0.208114 4.618609 -0.080700 45 14
0.236708 5.253170 1.409011 14 15
0.155971 2.996109 -0.803892 6 0
0.277882 5.337958 0.093301 5 1
0.180939 3.475744 -0.803525 4 2
0.257919 4.954483 0.260005 136 3
0.212294 4.078047 -0.793765 5 4
0.256669 4.930465 0.431944 100 5
0.243489 4.677285 -0.741812 28 6
0.278020 5.340607 0.656632 1 7
0.244583 4.698307 -0.577661 12 8
0.244032 4.687722 -0.410678 14 10
0.278738 5.354397 1.042199 12 11
0.244421 4.695190 -0.246398 16 12
0.240353 4.617044 -0.080700 50 14
0.271266 5.210876 1.398140 31 15
0.155870 2.994179 -0.803374 6 0
0.273724 5.258078 0.091904 8 1
0.180129 3.460175 -0.799926 4 2
0.257608 4.948499 0.259691 131 3
0.213723 4.105495 -0.799108 5 4
0.256565 4.928475 0.431770 77 5
0.243489 4.677285 -0.741812 28 6
0.272757 5.239504 0.644201 14 7
0.244790 4.702271 -0.578148 12 8
0.244447 4.695681 -0.411375 12 10
0.272716 5.238722 1.019683 27 11
0.243590 4.679234 -0.245560 16 12
0.272827 5.240861 1.211586 8 13
0.241289 4.635017 -0.081014 63 14
0.273677 5.257177 1.410564 15 15
0.177225 3.000732 -0.805445 5 0
0.310189 5.252047 0.091835 17 1
0.205315 3.476341 -0.803975 4 2
0.241916 4.096064 -0.797582 5 4
0.276602 4.683359 -0.743064 28 6
0.309212 5.235491 0.643958 16 7
