0.468808 -0.606348 0.121393 5 9
0.485145 -0.627478 0.154174 4 11
0.506986 -0.655727 -0.043439 5 12
0.474407 -0.613589 0.179061 5 13
0.503935 -0.651781 -0.014381 5 14
0.542376 -0.701499 0.237596 5 15
0.515012 -0.676049 0.014835 4 1
0.473234 -0.621208 0.040927 3 3
0.479324 -0.629202 0.069202 4 5
0.459524 -0.603212 0.093108 3 7
0.462063 -0.606545 0.120767 5 9
0.316330 -0.415242 -0.045670 6 10
0.484212 -0.635619 0.155319 4 11
0.502281 -0.659338 -0.043439 5 12
0.458195 -0.601466 0.174562 5 13
0.501682 -0.658552 -0.014451 4 14
0.530318 -0.696142 0.234490 5 15
0.510165 -0.669687 0.014695 4 1
0.481706 -0.632329 0.041659 3 3
0.481739 -0.632372 0.069550 4 5
0.453510 -0.595316 0.091889 4 7
0.469246 -0.615973 0.122645 5 9
0.444310 -0.583241 -0.064147 4 10
0.488971 -0.641866 0.156845 4 11
0.514384 -0.675226 -0.044486 5 12
0.460556 -0.604567 0.175462 5 13
0.501682 -0.658552 -0.014451 4 14
0.530318 -0.696142 0.234490 5 15
0.480877 -0.640468 0.041973 3 3
0.467742 -0.622974 0.068156 4 5
0.463645 -0.617517 0.094814 3 7
0.469678 -0.625553 0.123896 5 9
0.406732 -0.541716 -0.059266 4 10
0.479762 -0.638984 0.155319 7 11
0.519251 -0.691578 -0.045323 5 12
0.463345 -0.617118 0.178161 5 13
0.499474 -0.665236 -0.014520 4 14
0.526605 -0.701372 0.235008 7 15
0.467686 -0.622899 0.040822 3 3
0.462957 -0.616601 0.067459 4 5
0.460069 -0.612755 0.094083 3 7
0.479167 -0.638190 0.126399 5 9
0.337348 -0.449306 -0.049156 6 10
0.475047 -0.632704 0.153792 7 11
0.490471 -0.653246 -0.042811 6 12
0.449304 -0.598417 0.172762 5 13
0.504276 -0.671633 -0.014660 4 14
0.528925 -0.704462 0.236043 5 15
0.505642 -0.683086 0.014835 4 1
0.462247 -0.624463 0.040717 3 3
0.477716 -0.645360 0.070248 4 5
0.448802 -0.606299 0.092621 3 7
0.448956 -0.606507 0.119516 5 9
0.462305 -0.624542 -0.067981 3 10
0.469562 -0.634345 0.153410 7 11
0.500272 -0.675833 -0.044067 5 12
0.461453 -0.623390 0.179061 5 13
0.502072 -0.678264 -0.014730 4 14
0.535611 -0.723573 0.241219 7 15
0.497313 -0.671835 0.014590 4 1
0.457494 -0.618042 0.040299 3 3
0.464676 -0.627744 0.068330 4 5
0.451164 -0.609490 0.093108 3 7
0.453657 -0.612858 0.120767 5 9
0.474234 -0.640656 0.154937 7 11
0.470728 -0.635920 0.182660 5 13
0.487796 -0.658977 -0.014311 5 14
0.531014 -0.717362 0.239149 7 15
0.491315 -0.673761 0.014555 4 1
0.460120 -0.630982 0.040927 3 3
0.451955 -0.619785 0.067110 4 5
0.444452 -0.609495 0.092621 3 7
0.446932 -0.612896 0.120142 5 9
0.473085 -0.648762 -0.070248 3 10
0.466167 -0.639275 0.153792 7 11
0.500131 -0.685850 -0.044486 5 12
0.440905 -0.604632 0.172762 5 13
0.490137 -0.672145 -0.014520 4 14
0.524729 -0.719582 0.238631 7 15
0.497206 -0.681840 0.014730 4 1
0.463650 -0.635823 0.041241 3 3
0.457824 -0.627834 0.067981 4 5
0.442112 -0.606287 0.092133 4 7
0.435293 -0.596936 0.117013 6 9
0.397955 -0.545732 -0.059092 4 10
0.458070 -0.628171 0.151121 7 11
0.493070 -0.676168 -0.043858 5 12
0.450091 -0.617228 0.176362 5 13
0.490137 -0.672145 -0.014520 4 14
0.536111 -0.735192 0.243808 7 15
0.507604 -0.706405 0.015184 3 1
0.453373 -0.630935 0.040717 3 3
0.461569 -0.642341 0.069202 4 5
0.440186 -0.612583 0.092621 3 7
0.454169 -0.632043 0.123270 5 9
0.459402 -0.639325 0.153029 7 11
0.490668 -0.682837 -0.044067 5 12
0.484434 -0.674162 0.191658 5 13
0.499435 -0.695038 -0.014939 4 14
0.524202 -0.729504 0.240702 7 15
0.487766 -0.678798 0.014590 4 1
0.449876 -0.626069 0.040403 3 3
0.463894 -0.645577 0.069550 4 5
0.447136 -0.622255 0.094083 3 7
0.442642 -0.616002 0.120142 5 9
0.463984 -0.645702 0.154555 7 11
0.492999 -0.686081 -0.044276 5 12
0.438948 -0.610860 0.173662 5 13
0.534347 -0.743623 0.245360 6 15
0.493537 -0.696789 0.014904 3 1
0.449068 -0.634007 0.040717 3 3
0.458337 -0.647093 0.069376 4 5
0.445185 -0.628524 0.094571 3 7
0.431588 -0.609328 0.118264 5 9
0.447973 -0.632461 -0.067807 3 10
0.462983 -0.653652 0.155700 7 11
0.483700 -0.682902 -0.043858 5 12
0.446043 -0.629736 0.178161 5 13
0.492381 -0.695157 -0.014869 4 14
0.540439 -0.763008 0.250537 7 15
0.493537 -0.696789 0.014904 3 1
0.445605 -0.629117 0.040403 3 3
0.456034 -0.643842 0.069027 4 5
0.438300 -0.618805 0.093108 3 7
0.427021 -0.602881 0.117013 6 9
0.390393 -0.551168 -0.059092 4 10
0.457309 -0.645641 0.153792 7 11
0.516024 -0.728537 -0.046788 5 12
0.439285 -0.620195 0.175462 5 13
0.492381 -0.695157 -0.014869 4 14
0.540439 -0.763008 0.250537 12 15
0.480770 -0.688655 0.014660 4 1
0.456175 -0.653425 0.041764 3 3
0.456203 -0.653466 0.069725 4 5
0.431806 -0.618519 0.092621 3 7
0.436477 -0.625210 0.120767 5 9
0.449532 -0.643910 0.152647 7 11
0.492760 -0.705830 -0.045114 5 12
0.475212 -0.680694 0.191658 5 13
0.492217 -0.705051 -0.015009 4 14
0.529704 -0.758748 0.247949 19 15
0.483059 -0.691934 0.014730 4 1
0.442455 -0.633773 0.040508 3 3
0.439096 -0.628960 0.067110 4 5
0.431806 -0.618519 0.092621 3 7
0.436477 -0.625210 0.120767 5 9
0.448408 -0.642300 0.152266 7 11
0.472181 -0.676352 -0.043229 6 12
0.443978 -0.635954 0.179061 5 13
0.487638 -0.698493 -0.014869 4 14
0.540763 -0.774589 0.253125 30 15
0.457703 -0.665713 0.014102 4 1
0.440172 -0.640215 0.040717 3 3
0.454902 -0.661639 0.070248 4 5
0.429618 -0.624864 0.093108 3 7
0.431992 -0.628317 0.120767 5 9
0.326220 -0.474475 -0.050376 5 10
0.447137 -0.650346 0.153410 4 11
0.450456 -0.655172 0.183560 5 13
0.489425 -0.711851 -0.015079 4 14
0.540678 -0.786398 0.255713 38 15
0.478095 -0.695373 0.014730 4 1
0.439040 -0.638569 0.040613 3 3
0.444743 -0.646863 0.068679 4 5
0.438615 -0.637950 0.095058 3 7
0.436468 -0.634828 0.122019 5 9
0.449362 -0.653581 0.154174 4 11
0.469592 -0.683005 -0.043439 5 12
0.395253 -0.574882 0.161065 5 13
0.486026 -0.706908 -0.014974 4 14
0.542867 -0.789582 0.256748 45 15
0.476839 -0.703494 0.014835 4 1
0.443760 -0.654693 0.041450 3 3
0.444914 -0.656395 0.069376 4 5
0.425464 -0.627700 0.093108 3 7
0.423382 -0.624628 0.119516 5 9
0.439510 -0.648421 0.152266 7 11
0.491947 -0.725783 -0.045951 5 12
0.428607 -0.632336 0.176362 5 13
0.473473 -0.698529 -0.014730 4 14
0.531115 -0.783570 0.253643 51 15
0.483571 -0.713426 0.015044 3 1
0.441519 -0.651386 0.041241 3 3
0.430382 -0.634955 0.067110 4 5
0.421009 -0.621127 0.092133 4 7
0.427815 -0.631168 0.120767 5 9
0.436205 -0.643546 0.151121 7 11
0.491947 -0.725783 -0.045951 5 12
0.428607 -0.632336 0.176362 5 13
0.495913 -0.731634 -0.015428 4 14
0.531115 -0.783570 0.253643 49 15
0.474137 -0.710132 0.014904 3 1
0.445833 -0.667741 0.042078 3 3
0.433683 -0.649543 0.068330 4 5
0.424379 -0.635608 0.093839 3 7
0.427786 -0.640711 0.122019 5 9
0.335219 -0.502070 -0.052816 5 10
0.433882 -0.649841 0.151884 7 11
0.424182 -0.635313 0.176362 5 13
0.468585 -0.701817 -0.014730 4 14
0.527777 -0.790472 0.254678 46 15
0.485241 -0.726763 0.015253 3 1
0.433634 -0.649470 0.040927 3 3
0.439215 -0.657828 0.069202 4 5
0.405640 -0.607542 0.089696 4 7
0.420108 -0.629211 0.119829 5 9
0.439333 -0.658005 0.153792 7 11
0.486868 -0.729200 -0.045951 5 12
0.424182 -0.635313 0.176362 5 13
0.477468 -0.715122 -0.015009 4 14
0.532068 -0.796899 0.256748 45 15
0.482225 -0.733559 0.015323 3 1
0.428975 -0.652556 0.040927 3 3
0.443252 -0.674273 0.070596 4 5
0.416548 -0.633652 0.093108 3 7
0.418850 -0.637153 0.120767 5 9
0.440005 -0.669335 0.155700 7 11
0.490414 -0.746017 -0.046788 5 12
0.417484 -0.635075 0.175462 5 13
0.467945 -0.711836 -0.014869 4 14
0.523169 -0.795843 0.255196 49 15
0.486618 -0.740243 0.015463 3 1
0.423490 -0.644211 0.040403 3 3
0.433402 -0.659289 0.069027 4 5
0.414367 -0.630334 0.092621 3 7
0.414509 -0.630551 0.119516 5 9
0.436770 -0.664413 0.154555 7 11
0.507968 -0.772720 -0.048463 4 12
0.430329 -0.654616 0.180861 5 13
0.470142 -0.715178 -0.014939 4 14
0.519985 -0.791000 0.253643 49 15
0.473959 -0.731789 0.015218 3 1
0.423438 -0.653784 0.040822 3 3
0.420239 -0.648846 0.067633 4 5
0.403592 -0.623143 0.091158 4 7
0.420946 -0.649937 0.122645 5 9
0.422632 -0.652540 0.151121 7 11
0.548298 -0.846567 -0.052859 3 12
0.451288 -0.696785 0.191658 5 13
0.478308 -0.738503 -0.015358 4 14
0.517740 -0.799385 0.255196 50 15
0.464176 -0.716683 0.014904 3 1
0.421266 -0.650432 0.040613 3 3
0.420239 -0.648846 0.067633 4 5
0.405751 -0.626475 0.091646 4 7
0.412356 -0.636673 0.120142 5 9
0.349838 -0.540147 -0.056303 5 10
0.426901 -0.659132 0.152647 7 11
0.613442 -0.947149 -0.059140 3 12
0.444932 -0.686971 0.188959 5 13
0.482656 -0.745216 -0.015498 4 14
0.520890 -0.804250 0.256748 45 15
0.423159 -0.663460 0.041241 3 3
0.426413 -0.668562 0.069376 4 5
0.399232 -0.625946 0.091158 4 7
0.412150 -0.646198 0.121393 5 9
0.401771 -0.629926 -0.065367 4 10
0.424401 -0.665406 0.153410 7 11
0.613259 -0.961512 -0.059768 3 12
0.440125 -0.690061 0.188959 5 13
0.494647 -0.775543 -0.016056 3 14
0.517340 -0.811124 0.257784 44 15
0.474216 -0.743510 0.015393 3 1
0.428529 -0.671880 0.041764 3 3
0.428556 -0.671921 0.069725 4 5
0.412042 -0.646029 0.094083 3 7
0.410025 -0.642868 0.120767 5 9
0.425456 -0.667061 0.153792 7 11
0.623999 -0.978351 -0.060814 3 12
0.431742 -0.676917 0.185360 5 13
0.507550 -0.795775 -0.016475 3 14
0.519418 -0.814382 0.258819 42 15
0.459442 -0.731561 0.015079 3 1
0.422766 -0.673164 0.041659 3 3
0.418556 -0.666461 0.068853 4 5
0.399076 -0.635442 0.092133 4 7
0.398173 -0.634005 0.118577 5 9
0.418701 -0.666690 0.153029 7 11
0.621402 -0.989449 -0.061233 3 12
0.435297 -0.693117 0.188959 5 13
0.518999 -0.826393 -0.017034 3 14
0.505500 -0.804900 0.254678 41 15
0.460505 -0.733255 0.015114 3 1
0.422766 -0.673164 0.041659 3 3
0.417497 -0.664773 0.068679 4 5
0.401187 -0.638804 0.092621 3 7
0.392920 -0.625640 0.117013 6 9
0.416612 -0.663365 0.152266 7 11
0.617153 -0.982684 -0.060814 3 12
0.462244 -0.736024 0.200656 5 13
0.573238 -0.912758 -0.018814 2 14
0.507555 -0.808172 0.255713 39 15
0.438672 -0.709162 0.014555 8 1
0.410819 -0.664136 0.040927 3 3
0.417155 -0.674378 0.069376 4 5
0.392652 -0.634767 0.091646 4 7
0.404240 -0.653500 0.121706 5 9
0.577518 -0.933623 -0.096046 1 10
0.414153 -0.669525 0.153029 7 11
0.579980 -0.937604 -0.057779 3 12
0.459274 -0.742468 0.201556 5 13
0.620663 -1.003371 -0.020594 7 14
0.504075 -0.814894 0.256748 42 15
0.444984 -0.719366 0.014765 8 1
0.410819 -0.664136 0.040927 3 3
0.415058 -0.670989 0.069027 4 5
0.394741 -0.638143 0.092133 4 7
0.396966 -0.641740 0.119516 5 9
0.575422 -0.930234 -0.095697 1 10
0.418284 -0.676203 0.154555 7 11
0.568423 -0.918919 -0.056628 3 12
0.446972 -0.722580 0.196157 5 13
0.611195 -0.988065 -0.020280 9 14
0.508140 -0.821466 0.258819 39 15
0.428510 -0.703668 0.014381 4 1
0.412406 -0.677223 0.041555 3 3
0.412437 -0.677273 0.069376 4 5
0.393374 -0.645970 0.092864 3 7
0.392476 -0.644496 0.119516 5 9
0.415596 -0.682461 0.155319 7 11
0.582770 -0.956982 -0.058721 3 12
0.441917 -0.725683 0.196157 5 13
0.595962 -0.978645 -0.020000 14 14
0.502393 -0.824993 0.258819 37 15
0.427470 -0.701960 0.014346 4 1
0.414483 -0.680634 0.041764 3 3
0.415545 -0.682378 0.069899 4 5
0.394406 -0.647665 0.093108 3 7
0.406860 -0.668116 0.123896 5 9
0.411511 -0.675753 0.153792 7 11
0.591080 -0.970629 -0.059558 3 12
0.464215 -0.762300 0.206055 4 13
0.593882 -0.975229 -0.019931 25 14
0.495360 -0.813443 0.255196 33 15
0.417418 -0.696351 0.014171 4 1
0.409722 -0.683511 0.041764 3 3
0.398479 -0.664756 0.067807 4 5
0.399061 -0.665727 0.095302 3 7
0.380858 -0.635360 0.117326 6 9
0.573646 -0.956975 -0.097614 3 10
0.404765 -0.675242 0.153029 7 11
0.584290 -0.974732 -0.059558 3 12
0.465895 -0.777223 0.209204 4 13
0.586031 -0.977636 -0.019896 25 14
0.491655 -0.820196 0.256231 33 15
0.418446 -0.698066 0.014206 4 1
0.409722 -0.683511 0.041764 3 3
0.395406 -0.659629 0.067284 4 5
0.393958 -0.657214 0.094083 3 7
0.396092 -0.660774 0.122019 5 9
0.406783 -0.678610 0.153792 7 11
0.579155 -0.966167 -0.059035 3 12
0.477919 -0.797280 0.214603 4 13
0.593227 -0.989642 -0.020140 16 14
0.495628 -0.826824 0.258301 28 15
0.407707 -0.690495 0.013997 4 1
0.398071 -0.674175 0.041031 3 3
0.410269 -0.694835 0.070596 4 5
0.383534 -0.649556 0.092621 3 7
0.395718 -0.670191 0.123270 5 9
0.582481 -0.986494 -0.100229 4 10
0.403272 -0.682983 0.154174 7 11
0.573750 -0.971706 -0.059140 3 12
0.486492 -0.823925 0.220902 13 13
0.576483 -0.976335 -0.019791 15 14
0.494062 -0.836747 0.260372 27 15
0.415841 -0.704270 0.014276 4 1
0.387916 -0.656977 0.039985 3 3
0.405204 -0.686256 0.069725 4 5
0.388581 -0.658103 0.093839 3 7
0.388688 -0.658284 0.121080 5 9
0.408263 -0.691436 0.156082 7 11
0.493427 -0.835671 0.224051 13 13
0.563266 -0.953950 -0.019337 15 14
0.494062 -0.836747 0.260372 27 15
0.415938 -0.715801 0.014451 4 1
0.396365 -0.682118 0.041345 3 3
0.393397 -0.677010 0.068504 4 5
0.386969 -0.665948 0.094571 3 7
0.379120 -0.652441 0.119516 5 9
0.399480 -0.687479 0.154555 7 11
0.500310 -0.861000 0.229900 18 13
0.548555 -0.944027 -0.019058 15 14
0.485297 -0.835164 0.258819 27 15
0.409909 -0.705427 0.014241 4 1
0.396365 -0.682118 0.041345 3 3
0.394398 -0.678732 0.068679 4 5
0.391956 -0.674530 0.095789 3 7
0.390038 -0.671229 0.122957 5 9
0.393562 -0.677295 0.152266 7 11
0.503247 -0.866054 0.231250 18 13
0.546546 -0.940570 -0.018988 20 14
0.490150 -0.843516 0.261407 26 15
0.402990 -0.704800 0.014171 4 1
0.391593 -0.684869 0.041345 3 3
0.394594 -0.690117 0.069550 4 5
0.366545 -0.641061 0.090671 4 7
0.378478 -0.661932 0.120767 5 9
0.552828 -0.966856 -0.097440 1 10
0.397595 -0.695365 0.155700 7 11
0.529395 -0.925873 -0.055895 10 12
0.496221 -0.867855 0.230800 18 13
0.538974 -0.942626 -0.018953 20 14
0.481373 -0.841886 0.259854 26 15
0.401997 -0.703064 0.014136 4 1
0.385645 -0.674466 0.040717 3 3
0.400528 -0.700495 0.070596 4 5
0.372457 -0.651401 0.092133 4 7
0.367693 -0.643068 0.117326 6 9
0.558762 -0.977234 -0.098486 1 10
0.399544 -0.698773 0.156463 7 11
0.497188 -0.869547 0.231250 18 13
0.533018 -0.932210 -0.018744 17 14
0.485208 -0.848594 0.261925 26 15
0.404922 -0.719796 0.014416 4 1
0.385823 -0.685845 0.041241 3 3
0.393674 -0.699801 0.070248 4 5
0.376660 -0.669556 0.094327 3 7
0.373848 -0.664558 0.120767 5 9
0.540203 -0.960273 -0.096394 1 10
0.395618 -0.703257 0.156845 6 11
0.515084 -0.915621 -0.055057 14 12
0.490150 -0.871298 0.230800 18 13
0.518654 -0.921966 -0.018465 18 14
0.482114 -0.857012 0.263478 23 15
0.414727 -0.737224 0.014765 4 1
0.389740 -0.692808 0.041659 3 3
0.379998 -0.675490 0.067807 4 5
0.372767 -0.662636 0.093352 3 7
0.374817 -0.666279 0.121080 5 9
0.531412 -0.944645 -0.094825 1 10
0.393693 -0.699834 0.156082 7 11
0.509208 -0.905176 -0.054429 14 12
0.499705 -0.888282 0.235299 17 13
0.516693 -0.918480 -0.018395 18 14
0.474536 -0.843542 0.259337 23 15
0.403888 -0.729533 0.014555 8 1
0.386950 -0.698940 0.041869 6 3
0.376357 -0.679805 0.067981 4 5
0.369209 -0.666895 0.093596 3 7
0.375057 -0.677456 0.122645 5 9
0.383215 -0.692192 0.153792 7 11
0.497231 -0.898137 -0.053801 14 12
0.488927 -0.883139 0.233049 17 13
0.510429 -0.921976 -0.018395 18 14
0.469719 -0.848443 0.259854 21 15
0.405825 -0.733032 0.014625 4 1
0.384048 -0.693698 0.041555 7 3
0.381182 -0.688520 0.068853 4 5
0.370171 -0.668631 0.093839 3 7
0.369316 -0.667087 0.120767 5 9
0.386068 -0.697345 0.154937 7 11
0.484655 -0.875422 -0.052441 10 12
0.492703 -0.889958 0.234849 17 13
0.510429 -0.921976 -0.018395 13 14
0.475333 -0.858584 0.262960 20 15
0.440863 -0.809608 0.016091 9 1
0.377286 -0.692854 0.041345 7 3
0.377318 -0.692914 0.069027 4 5
0.365494 -0.671199 0.093839 3 7
0.372207 -0.683528 0.123270 5 9
0.385884 -0.708645 0.156845 6 11
0.478532 -0.878784 -0.052441 10 12
0.485546 -0.891665 0.234399 17 13
0.498242 -0.914980 -0.018185 10 14
0.472099 -0.866971 0.264513 20 15
0.483897 -0.888637 0.017662 6 1
0.381106 -0.699870 0.041764 6 3
0.382083 -0.701663 0.069899 4 5
0.361696 -0.664226 0.092864 3 7
0.368428 -0.676588 0.122019 5 9
0.391518 -0.718990 0.159135 6 11
0.464204 -0.852473 -0.050871 12 12
0.486478 -0.893376 0.234849 17 13
0.492504 -0.904443 -0.017976 10 14
0.472099 -0.866971 0.264513 18 15
0.490898 -0.916673 0.018151 8 1
0.376211 -0.702513 0.041764 6 3
0.368710 -0.688506 0.068330 4 5
0.370171 -0.691234 0.096277 3 7
0.356236 -0.665213 0.119516 5 9
0.490045 -0.915080 -0.090816 1 10
0.383708 -0.716513 0.157990 6 11
0.451642 -0.843368 -0.050138 12 12
0.489429 -0.913930 0.239348 17 13
0.476738 -0.890231 -0.017627 10 14
0.468771 -0.875355 0.266066 16 15
0.497506 -0.929013 0.018395 8 1
0.380925 -0.711317 0.042287 6 3
0.364947 -0.681480 0.067633 4 5
0.364548 -0.680734 0.094814 3 7
0.356236 -0.665213 0.119516 5 9
0.497570 -0.929132 -0.092211 1 10
0.389269 -0.726897 0.160280 6 11
0.443156 -0.827522 -0.049196 18 12
0.490349 -0.915648 0.239798 13 13
0.480514 -0.897282 -0.017767 10 14
0.468771 -0.875355 0.266066 13 15
0.483715 -0.918224 0.018116 8 1
0.377006 -0.715660 0.042392 3 3
0.373301 -0.708627 0.070073 4 5
0.359906 -0.683200 0.094814 3 7
0.364589 -0.692090 0.123896 5 9
0.377907 -0.717371 0.157608 6 11
0.429135 -0.814616 -0.048254 19 12
0.485922 -0.922413 0.240698 4 13
0.469735 -0.891686 -0.017592 10 14
0.467304 -0.887071 0.268654 12 15
0.456687 -0.866917 0.017103 9 1
0.363973 -0.690921 0.040927 3 3
0.379801 -0.720966 0.071293 4 5
0.360831 -0.684956 0.095058 3 7
0.360906 -0.685099 0.122645 5 9
0.382482 -0.726056 0.159516 2 11
0.430997 -0.818150 -0.048463 18 12
0.620345 -1.177585 0.307283 3 13
0.472531 -0.896994 -0.017697 10 14
0.470005 -0.892199 0.270207 7 15
0.421195 -0.813262 0.015986 12 1
0.361897 -0.698766 0.041241 3 3
0.358265 -0.691755 0.068156 4 5
0.356953 -0.689221 0.095302 3 7
0.360657 -0.696373 0.124209 5 9
0.466386 -0.900520 -0.088725 1 10
0.595901 -1.150593 0.251868 1 11
0.429867 -0.830006 -0.048986 18 12
0.626448 -1.209574 0.314482 3 13
0.456141 -0.880738 -0.017313 11 14
0.468207 -0.904036 0.272795 3 15
0.406481 -0.784851 0.015428 14 1
0.369245 -0.712954 0.042078 3 3
0.362847 -0.700601 0.069027 4 5
0.366995 -0.708611 0.097983 3 7
0.304004 -0.586984 -0.081165 3 8
0.361565 -0.698127 0.124522 5 9
0.436149 -0.842136 -0.082972 2 10
0.632919 -1.222069 0.267514 2 11
0.433541 -0.837101 -0.049405 17 12
0.621967 -1.200922 0.312232 3 13
0.394641 -0.775195 0.015184 22 1
0.365164 -0.717295 0.042183 3 3
0.366986 -0.720872 0.070770 4 5
0.357536 -0.702311 0.096764 3 7
0.277383 -0.544866 -0.075072 3 8
0.351306 -0.690072 0.122645 5 9
0.627935 -1.233456 0.269041 3 11
0.425874 -0.836547 -0.049196 18 12
0.625945 -1.229548 0.318531 3 13
0.451796 -0.887465 -0.017383 11 14
0.396455 -0.778760 0.015253 25 1
0.363352 -0.713735 0.041973 3 3
0.361562 -0.710219 0.069725 4 5
0.348530 -0.684620 0.094327 3 7
0.313407 -0.615628 -0.084821 3 8
0.358475 -0.704155 0.125148 5 9
0.411277 -0.807874 -0.079312 2 10
0.622591 -1.222959 0.266751 3 11
0.422250 -0.829428 -0.048777 18 12
0.613568 -1.205234 0.312232 3 13
0.458146 -0.899940 -0.017627 7 14
0.861542 -1.692331 0.508838 66 15
0.391904 -0.783297 0.015288 32 1
0.352105 -0.703751 0.041241 3 3
0.364619 -0.728762 0.071293 4 5
0.348184 -0.695913 0.095546 3 7
0.308214 -0.616025 -0.084577 3 8
0.350015 -0.699574 0.123896 5 9
0.383340 -0.766180 -0.074954 3 10
0.617552 -1.234299 0.268277 3 11
0.415555 -0.830569 -0.048672 18 12
0.606011 -1.211231 0.312682 3 13
0.446484 -0.892386 -0.017418 11 14
0.851435 -1.701760 0.509874 66 15
0.392799 -0.785085 0.015323 32 1
0.359254 -0.718040 0.042078 3 3
0.361053 -0.721635 0.070596 4 5
0.352625 -0.704790 0.096764 3 7
0.344631 -0.688812 -0.094571 5 8
0.358854 -0.717240 0.127025 5 9
0.377991 -0.755489 -0.073908 3 10
0.612281 -1.223764 0.265988 3 11
0.422705 -0.844858 -0.049510 17 12
0.597291 -1.193803 0.308183 3 13
0.444695 -0.888809 -0.017348 8 14
0.847978 -1.694849 0.507803 66 15
0.385680 -0.784152 0.015253 36 1
0.356121 -0.724053 0.042287 3 3
0.351736 -0.715137 0.069725 4 5
0.346067 -0.703611 0.096277 3 7
0.341686 -0.694704 -0.095058 5 8
0.345245 -0.701940 0.123896 5 9
0.326235 -0.663289 -0.064670 4 10
0.597872 -1.215571 0.263316 1 11
0.414300 -0.842339 -0.049196 18 12
0.607213 -1.234563 0.317631 3 13
0.446577 -0.907965 -0.017662 7 14
0.829600 -1.686714 0.503662 69 15
0.381268 -0.775180 0.015079 37 1
0.355240 -0.722261 0.042183 3 3
0.361409 -0.734803 0.071642 4 5
0.343439 -0.698267 0.095546 3 7
0.348695 -0.708955 -0.097008 5 8
0.373144 -0.758662 0.133908 4 9
0.325356 -0.661501 -0.064495 4 10
0.597872 -1.215571 0.263316 1 11
0.409011 -0.831586 -0.048568 18 12
0.610653 -1.241558 0.319431 3 13
0.447460 -0.909760 -0.017697 7 14
0.834716 -1.697115 0.506768 79 15
0.372367 -0.770621 0.014939 38 1
0.358879 -0.742707 0.043229 6 3
0.351069 -0.726544 0.070596 4 5
0.343737 -0.711372 0.097008 3 7
0.351510 -0.727458 -0.099202 7 8
0.367838 -0.761249 0.133908 4 9
0.296458 -0.613526 -0.059615 4 10
0.613287 -1.269211 0.274002 1 11
0.615536 -1.273865 0.326629 2 13
0.444578 -0.920063 -0.017836 7 14
0.821167 -1.699422 0.505732 74 15
0.374977 -0.776022 0.015044 45 1
0.358010 -0.740909 0.043125 6 3
0.355403 -0.735514 0.071468 4 5
0.339419 -0.702435 0.095789 3 7
0.342874 -0.709585 -0.096764 7 8
0.625669 -1.294834 0.227769 2 9
0.344134 -0.712193 -0.069202 3 10
0.614996 -1.272747 0.274765 1 11
0.404933 -0.838018 -0.048777 13 12
0.615536 -1.273865 0.326629 2 13
0.447188 -0.925465 -0.017941 7 14
0.824529 -1.706380 0.507803 76 15
0.376409 -0.793073 0.015323 43 1
0.351972 -0.741585 0.043020 6 3
0.349405 -0.736178 0.071293 4 5
0.343870 -0.724514 0.098470 3 7
0.344721 -0.726308 -0.098714 7 8
0.583581 -1.229573 0.215567 2 9
0.297293 -0.626381 -0.060660 4 10
0.606095 -1.277009 0.274765 1 11
0.395647 -0.833607 -0.048358 13 12
0.606628 -1.278131 0.326629 2 13
0.445861 -0.939403 -0.018151 5 14
0.809283 -1.705114 0.505732 76 15
0.370407 -0.780428 0.015079 45 1
0.353685 -0.745194 0.043229 9 3
0.351968 -0.741577 0.071816 4 5
0.342167 -0.720928 0.097983 7 7
0.344721 -0.726308 -0.098714 7 8
0.604756 -1.274187 0.223388 2 9
0.324631 -0.683979 -0.066238 4 10
0.614513 -1.294746 0.278581 1 11
0.403355 -0.849846 -0.049300 13 12
0.628353 -1.323905 0.338326 2 13
0.577046 -1.215805 -0.023491 2 14
0.805969 -1.698133 0.503662 76 15
0.363260 -0.779369 0.015009 46 1
0.355224 -0.762127 0.044067 9 3
0.346783 -0.744016 0.071816 4 5
0.343835 -0.737693 0.099933 3 7
0.348028 -0.746689 -0.101152 7 8
0.604191 -1.296282 0.226517 2 9
0.326582 -0.700676 -0.067633 4 10
0.597166 -1.281209 0.274765 1 11
0.391506 -0.839969 -0.048568 4 12
0.630621 -1.352987 0.344625 2 13
0.587975 -1.261491 -0.024294 4 14
0.790830 -1.696714 0.501591 79 15
0.361571 -0.775744 0.014939 50 1
0.352693 -0.756697 0.043753 12 3
0.343416 -0.736793 0.071119 4 5
0.335449 -0.719700 0.097495 3 7
0.345512 -0.741291 -0.100420 7 8
0.612536 -1.314187 0.229646 2 9
0.337524 -0.724152 -0.069899 3 10
0.600483 -1.288327 0.276291 1 11
0.371255 -0.796523 -0.046056 5 12
0.630621 -1.352987 0.344625 2 13
0.795727 -1.707220 0.504697 74 15
0.358083 -0.781762 0.015009 50 1
0.350993 -0.766282 0.044172 12 3
0.341840 -0.746300 0.071816 4 5
0.333975 -0.729128 0.098470 7 7
0.331495 -0.723714 -0.097739 7 8
0.620259 -1.354139 0.235903 1 9
0.333543 -0.728186 -0.070073 7 10
0.617270 -1.347614 0.288122 1 11
0.338517 -0.739045 -0.042601 6 12
0.637864 -1.392575 0.353623 2 13
0.574599 -1.254454 -0.024084 4 14
0.784387 -1.712460 0.504697 76 15
0.363080 -0.792670 0.015218 48 1
0.346835 -0.757203 0.043648 21 3
0.345989 -0.755357 0.072688 4 5
0.206479 -0.450781 -0.078530 5 6
0.342242 -0.747176 0.100908 6 7
0.336455 -0.734543 -0.099202 7 8
0.638357 -1.393650 0.242786 1 9
0.340181 -0.742677 -0.071468 10 10
0.619723 -1.352969 0.289266 1 11
0.665456 -1.452813 0.368920 2 13
0.516306 -1.127191 -0.021641 2 14
0.779560 -1.701921 0.501591 81 15
0.355897 -0.791538 0.015149 52 1
0.340721 -0.757784 0.043544 21 3
0.333354 -0.741400 0.071119 4 5
0.340273 -0.756789 0.101883 6 7
0.336203 -0.747737 -0.100664 7 8
0.644813 -1.434105 0.249044 1 9
0.336622 -0.748668 -0.071816 10 10
0.630390 -1.402027 0.298807 1 11
0.338264 -0.752320 -0.043229 6 12
0.692058 -1.539181 0.389615 5 13
0.355897 -0.791538 -0.015149 4 14
0.762906 -1.696751 0.498485 74 15
0.352617 -0.784242 0.015009 58 1
0.348092 -0.774179 0.044486 30 3
0.336622 -0.748668 0.071816 4 5
0.207377 -0.461220 -0.080094 5 6
0.343529 -0.764031 0.102858 6 7
0.334575 -0.744116 -0.100177 7 8
0.636712 -1.416089 0.245915 1 9
0.346426 -0.770474 -0.073908 9 10
0.618313 -1.375168 0.293083 1 11
0.339902 -0.755963 -0.043439 5 12
0.682469 -1.517853 0.384216 6 13
0.356717 -0.793361 -0.015184 4 14
0.762906 -1.696751 0.498485 74 15
0.348078 -0.788454 0.015044 52 1
0.340395 -0.771049 0.044172 33 3
0.331518 -0.750942 0.071816 4 5
0.234549 -0.531291 -0.091983 5 6
0.330304 -0.748192 0.100420 3 7
0.326295 -0.739112 -0.099202 7 8
0.631048 -1.429425 0.247479 1 9
0.340369 -0.770992 -0.073734 9 10
0.620039 -1.404489 0.298425 1 11
0.322649 -0.730852 -0.041869 6 12
0.696519 -1.577728 0.398163 7 13
0.355347 -0.804918 -0.015358 8 14
0.751339 -1.701904 0.498485 76 15
0.351309 -0.795771 0.015184 52 1
0.335555 -0.760086 0.043544 34 3
0.333128 -0.754587 0.072165 4 5
0.248111 -0.562012 -0.097302 4 6
0.311063 -0.704608 0.094571 3 7
0.319882 -0.724584 -0.097252 7 8
0.650195 -1.472796 0.254988 1 9
0.342783 -0.776460 -0.074257 13 10
0.635897 -1.440409 0.306058 1 11
0.324262 -0.734506 -0.042078 18 12
0.740593 -1.677562 0.423358 8 13
0.362615 -0.821382 -0.015672 12 14
0.756020 -1.712508 0.501591 79 15
0.345745 -0.798204 0.015184 56 1
0.332622 -0.767908 0.043858 37 3
0.334187 -0.771521 0.073559 4 5
0.244181 -0.563730 -0.097302 4 6
0.624108 -1.440848 0.192797 1 7
0.322706 -0.745015 -0.099689 7 8
0.653244 -1.508114 0.260307 1 9
0.334187 -0.771521 -0.073559 9 10
0.633629 -1.462829 0.309874 1 11
0.318333 -0.734919 -0.041973 18 12
0.352103 -0.812884 -0.015463 16 14
0.739439 -1.707108 0.498485 76 15
0.348924 -0.805544 0.015323 54 1
0.335797 -0.775239 0.044276 36 3
0.327851 -0.756895 0.072165 4 5
0.282654 -0.652549 -0.112633 4 6
0.642255 -1.482744 0.198403 1 7
0.324284 -0.748658 -0.100177 7 8
0.654030 -1.509927 0.260620 1 9
0.326268 -0.753238 -0.071816 14 10
0.639091 -1.475439 0.312545 2 11
0.322302 -0.744083 -0.042497 18 12
0.743580 -1.716667 0.431906 72 13
0.353693 -0.816554 -0.015533 16 14
0.734832 -1.696472 0.495380 79 15
0.330780 -0.778513 0.014765 60 1
0.330377 -0.777565 0.044276 36 3
0.324897 -0.764666 0.072688 4 5
0.281181 -0.661779 -0.113884 3 6
0.638098 -1.501807 0.200353 1 7
0.322154 -0.758212 -0.101152 7 8
0.643472 -1.514456 0.260620 1 9
0.324118 -0.762833 -0.072514 13 10
0.634917 -1.494321 0.315598 4 11
0.310851 -0.731609 -0.041659 25 12
0.731577 -1.721817 0.431906 100 13
0.350330 -0.824525 -0.015637 20 14
0.721460 -1.698005 0.494344 79 15
0.337036 -0.793237 0.015044 48 1
0.328815 -0.773888 0.044067 39 3
0.325676 -0.766500 0.072862 4 5
0.275001 -0.647234 -0.111381 4 6
0.644308 -1.516423 0.202303 1 7
0.315944 -0.743596 -0.099202 7 8
0.658922 -1.550817 0.266877 1 9
0.325676 -0.766500 -0.072862 13 10
0.651040 -1.532266 0.323612 3 11
0.306165 -0.720580 -0.041031 26 12
0.722432 -1.700294 0.426507 93 13
0.353458 -0.831886 -0.015777 24 14
0.724482 -1.705117 0.496415 76 15
0.333657 -0.801166 0.015149 52 1
0.320197 -0.768846 0.043648 37 3
0.327076 -0.785364 0.074431 8 5
0.294665 -0.707540 -0.121393 3 6
0.667021 -1.601626 0.213028 2 7
0.310615 -0.745837 -0.099202 7 8
0.671350 -1.612023 0.276576 2 9
0.322480 -0.774329 -0.073385 13 10
0.664211 -1.594881 0.335824 3 11
0.297929 -0.715377 -0.040613 26 12
0.708748 -1.701822 0.425607 93 13
0.344420 -0.827010 -0.015637 28 14
0.713747 -1.713824 0.497450 81 15
0.332889 -0.799320 0.015114 52 1
0.321733 -0.772534 0.043858 37 3
0.328608 -0.789043 0.074780 11 5
0.288590 -0.692951 -0.118890 3 6
0.676942 -1.625449 0.216196 3 7
0.304509 -0.731177 -0.097252 7 8
0.687299 -1.650318 0.283146 4 9
0.320948 -0.770650 -0.073037 13 10
0.686855 -1.649252 0.347272 3 11
0.304840 -0.731971 -0.041555 25 12
0.707250 -1.698224 0.424708 100 13
0.334426 -0.803012 -0.015184 35 14
0.707805 -1.699557 0.493309 81 15
0.329093 -0.805212 0.015184 56 1
0.319625 -0.782046 0.044276 33 3
0.326383 -0.798582 0.075477 11 5
0.267546 -0.654622 -0.112007 4 6
0.681918 -1.668491 0.221315 4 7
0.301156 -0.736856 -0.097739 7 8
0.686801 -1.680439 0.287527 5 9
0.306031 -0.748786 -0.070770 14 10
0.698927 -1.710108 0.359103 6 11
0.303757 -0.743221 -0.042078 25 12
0.697446 -1.706485 0.425607 100 13
0.337415 -0.825574 -0.015568 33 14
0.695056 -1.700637 0.492274 71 15
0.321528 -0.786702 0.014835 56 1
0.324159 -0.793139 0.044904 31 3
0.330906 -0.809648 0.076523 14 5
0.257083 -0.629022 -0.107627 4 6
0.308666 -0.755231 -0.100177 7 8
0.303770 -0.743253 -0.070248 14 10
0.296956 -0.726582 -0.041136 26 12
0.697446 -1.706485 0.425607 100 13
0.335902 -0.821872 -0.015498 37 14
0.693595 -1.697061 0.491239 81 15
0.317515 -0.792640 0.014904 54 1
0.316385 -0.789820 0.044590 31 3
0.331172 -0.826734 0.077917 14 5
0.255624 -0.638136 -0.108878 4 6
0.295266 -0.737098 -0.097495 7 8
0.298574 -0.745356 -0.070248 14 10
0.681861 -1.702189 0.356431 56 11
0.290391 -0.724929 -0.040927 26 12
0.686241 -1.713121 0.426057 97 13
0.334618 -0.835335 -0.015707 36 14
0.681730 -1.701862 0.491239 81 15
0.319002 -0.796353 0.014974 54 1
0.311187 -0.776842 0.043858 34 3
0.383034 -0.956201 0.090119 20 5
0.215224 -0.537281 -0.091671 5 6
0.681326 -1.700852 0.224971 81 7
0.290099 -0.724198 -0.095789 8 8
0.688275 -1.718200 0.293158 93 9
0.297092 -0.741657 -0.069899 15 10
0.683321 -1.705834 0.357194 75 11
0.289649 -0.723075 -0.040822 32 12
0.681893 -1.702267 0.423358 100 13
0.331643 -0.827910 -0.015568 37 14
0.686040 -1.712621 0.494344 79 15
0.316357 -0.806006 0.015114 48 1
0.308675 -0.786432 0.044276 30 3
0.489181 -1.246321 0.117137 7 5
0.243224 -0.619678 -0.105437 4 6
0.670160 -1.707415 0.225215 87 7
0.297366 -0.757619 -0.099933 7 8
0.671933 -1.711931 0.291281 88 9
0.290451 -0.740003 -0.069550 15 10
0.675699 -1.721528 0.359484 83 11
0.287512 -0.732516 -0.041241 39 12
0.669280 -1.705172 0.422908 100 13
0.320010 -0.815313 -0.015288 38 14
0.671244 -1.710176 0.492274 79 15
0.315627 -0.804145 0.015079 48 1
0.310134 -0.790151 0.044486 30 3
0.515387 -1.313089 0.123413 12 5
0.212189 -0.540610 -0.091983 5 6
0.670160 -1.707415 0.225215 84 7
0.294464 -0.750228 -0.098958 7 8
0.669767 -1.706414 0.290342 98 9
0.285356 -0.727021 -0.068330 15 10
0.674982 -1.719700 0.359103 80 11
0.288972 -0.736234 -0.041450 51 12
0.673552 -1.716056 0.425607 100 13
0.319280 -0.813452 -0.015253 43 14
0.667009 -1.699386 0.489168 81 15
0.308710 -0.802542 0.015009 50 1
0.310485 -0.807156 0.045323 27 3
0.515736 -1.340741 0.125679 17 5
0.225525 -0.586290 -0.099492 4 6
0.658523 -1.711938 0.225215 82 7
0.288638 -0.750362 -0.098714 7 8
0.659555 -1.714621 0.290968 96 9
0.278254 -0.723368 -0.067807 15 10
0.657622 -1.709596 0.356050 78 11
0.279651 -0.727000 -0.040822 45 12
0.660456 -1.716964 0.424708 100 13
0.317325 -0.824938 -0.015428 42 14
0.654039 -1.700281 0.488133 79 15
0.307274 -0.798809 0.014939 50 1
0.309051 -0.803428 0.045114 28 3
0.518597 -1.348179 0.126376 15 5
0.178718 -0.464607 -0.078843 5 6
0.652821 -1.697116 0.223265 92 7
0.285787 -0.742951 -0.097739 7 8
0.662392 -1.721996 0.292220 96 9
0.273962 -0.712210 -0.066761 16 10
0.660441 -1.716925 0.357576 86 11
0.279651 -0.727000 -0.040822 39 12
0.660456 -1.716964 0.424708 100 13
0.318761 -0.828671 -0.015498 41 14
0.655426 -1.703887 0.489168 74 15
0.306061 -0.812109 0.015149 45 1
0.300758 -0.798037 0.044695 28 3
0.512922 -1.360999 0.127247 19 5
0.210383 -0.558236 -0.094486 5 6
0.641255 -1.701520 0.223265 88 7
0.283524 -0.752310 -0.098714 7 8
0.649262 -1.722767 0.291594 96 9
0.269811 -0.715923 -0.066936 16 10
0.648740 -1.721381 0.357576 86 11
0.274697 -0.728886 -0.040822 39 12
0.645318 -1.712302 0.422458 100 13
0.308882 -0.819594 -0.015288 42 14
0.645176 -1.711924 0.490203 76 15
0.308177 -0.817723 0.015253 39 1
0.302166 -0.801775 0.044904 28 3
0.505896 -1.342355 0.125504 19 5
0.642655 -1.705235 0.223752 82 7
0.285624 -0.757882 -0.099445 7 8
0.645082 -1.711677 0.289717 96 9
0.265595 -0.704737 -0.065890 16 10
0.650124 -1.725055 0.358339 86 11
0.274697 -0.728886 -0.040822 32 12
0.644631 -1.710478 0.422008 100 13
0.309587 -0.821465 -0.015323 42 14
0.642451 -1.704693 0.488133 79 15
0.300934 -0.816155 0.015184 45 1
0.299185 -0.811412 0.045323 27 3
0.496966 -1.347811 0.125679 15 5
0.188615 -0.511539 -0.086352 5 6
0.633183 -1.717240 0.224727 84 7
0.286374 -0.776669 -0.101639 7 8
0.631451 -1.712542 0.289091 96 9
0.261924 -0.710358 -0.066238 16 10
0.633009 -1.716769 0.355668 80 11
0.272238 -0.738329 -0.041241 26 12
0.633049 -1.716876 0.422458 97 13
0.303009 -0.821783 -0.015288 42 14
0.626226 -1.698372 0.485027 84 15
0.298166 -0.808650 0.015044 41 1
0.301949 -0.818908 0.045742 27 3
0.498345 -1.351549 0.126027 21 5
0.630436 -1.709790 0.223752 82 7
0.280881 -0.761769 -0.099689 7 8
0.630767 -1.710689 0.288778 88 9
0.252274 -0.684187 -0.063798 17 10
0.628934 -1.705717 0.353378 91 11
0.269474 -0.730833 -0.040822 26 12
0.634397 -1.720533 0.423358 97 13
0.305084 -0.827412 -0.015393 46 14
0.627562 -1.701997 0.486062 79 15
0.294692 -0.816303 0.015149 41 1
0.296368 -0.820944 0.045742 27 3
0.489810 -1.356784 0.126202 22 5
0.616087 -1.706573 0.222777 86 7
0.274341 -0.759929 -0.099202 7 8
0.622462 -1.724233 0.290342 98 9
0.254377 -0.704628 -0.065541 16 10
0.617309 -1.709958 0.353378 86 11
0.260424 -0.721379 -0.040194 27 12
0.621348 -1.721145 0.422458 100 13
0.301482 -0.835112 -0.015498 41 14
0.617275 -1.709863 0.487097 81 15
0.296729 -0.821946 0.015253 39 1
0.295011 -0.817187 0.045532 27 3
0.487104 -1.349288 0.125504 24 5
0.614739 -1.702839 0.222290 94 7
0.269622 -0.746859 -0.097495 5 8
0.620450 -1.718659 0.289404 92 9
0.254377 -0.704628 -0.065541 16 10
0.619976 -1.717345 0.354905 91 11
0.257033 -0.711986 -0.039671 27 12
0.619362 -1.715646 0.421108 100 13
0.295371 -0.818184 -0.015184 39 14
0.619899 -1.717131 0.489168 84 15
0.292981 -0.829654 0.015358 36 1
0.290629 -0.822994 0.045742 27 3
0.479663 -1.358292 0.126027 21 5
0.604158 -1.710832 0.222777 94 7
0.267046 -0.756210 -0.098470 7 8
0.603832 -1.709910 0.287214 96 9
0.249451 -0.706387 -0.065541 12 10
0.607317 -1.719780 0.354523 94 11
0.254716 -0.721296 -0.040089 27 12
0.603476 -1.708903 0.418409 100 13
0.288986 -0.818341 -0.015149 35 14
0.606609 -1.717774 0.488133 84 15
0.292981 -0.829654 0.015358 36 1
0.294620 -0.834293 0.046370 26 3
0.477672 -1.352656 0.125504 22 5
0.605480 -1.714576 0.223265 86 7
0.273656 -0.774929 -0.100908 5 8
0.605147 -1.713635 0.287839 96 9
0.240163 -0.680085 -0.063101 17 10
0.605356 -1.714226 0.353378 91 11
0.255381 -0.723180 -0.040194 27 12
0.608019 -1.721766 0.421558 100 13
0.289652 -0.820226 -0.015184 30 14
0.600176 -1.699558 0.482956 81 15
0.284571 -0.824119 0.015218 37 1
0.292047 -0.845769 0.046893 25 3
0.465616 -1.348425 0.124807 29 5
0.594791 -1.722514 0.223752 84 7
0.268239 -0.776820 -0.100908 5 8
0.593814 -1.719685 0.288152 92 9
0.232808 -0.674212 -0.062404 13 10
0.590811 -1.710988 0.351852 88 11
0.245111 -0.709842 -0.039357 27 12
0.596620 -1.727811 0.422008 100 13
0.283919 -0.822228 -0.015184 26 14
0.587035 -1.700055 0.481921 79 15
0.288487 -0.835460 0.015428 35 1
0.288788 -0.836330 0.046370 26 3
0.470168 -1.361607 0.126027 24 5
0.589607 -1.707503 0.221802 97 7
0.264351 -0.765562 -0.099445 5 8
0.594459 -1.721552 0.288465 98 9
0.232808 -0.674212 -0.062404 13 10
0.592092 -1.714699 0.352615 88 11
0.243807 -0.706066 -0.039147 28 12
0.595348 -1.724127 0.421108 100 13
0.288487 -0.835460 -0.015428 29 14
0.587666 -1.701881 0.482439 89 15
0.285353 -0.844982 0.015568 35 1
0.278616 -0.825030 0.045637 27 3
0.462165 -1.368551 0.126376 28 5
0.575431 -1.703954 0.220827 92 7
0.260405 -0.771105 -0.099933 5 8
0.583359 -1.727430 0.288778 100 9
0.228214 -0.675781 -0.062404 13 10
0.580407 -1.718690 0.352615 86 11
0.233884 -0.692571 -0.038310 28 12
0.580481 -1.718907 0.418859 100 13
0.282794 -0.837404 -0.015428 25 14
0.580395 -1.718653 0.486062 84 15
0.284074 -0.841193 0.015498 38 1
0.283089 -0.838276 0.046370 26 3
0.461527 -1.366664 0.126202 28 5
0.579242 -1.715238 0.222290 97 7
0.252783 -0.748536 -0.097008 5 8
0.577671 -1.710586 0.285962 98 9
0.225664 -0.668231 -0.061706 13 10
0.581664 -1.722410 0.353378 86 11
0.235801 -0.698248 -0.038624 28 12
0.581105 -1.720754 0.419309 100 13
0.278955 -0.826036 -0.015218 26 14
0.579159 -1.714993 0.485027 93 15
0.279447 -0.846954 0.015568 35 1
0.279107 -0.845922 0.046684 21 3
0.450726 -1.366068 0.125853 29 5
0.568497 -1.723011 0.222777 100 7
0.252527 -0.765364 -0.098958 5 8
0.567572 -1.720205 0.286901 100 9
0.217248 -0.658437 -0.060660 14 10
0.567164 -1.718971 0.351852 88 11
0.229669 -0.696084 -0.038415 28 12
0.568467 -1.722918 0.418859 100 13
0.273182 -0.827964 -0.015218 30 14
0.564145 -1.709821 0.482439 89 15
0.278821 -0.845055 0.015533 38 1
0.280984 -0.851612 0.046998 22 3
0.449478 -1.362284 0.125504 28 5
0.566009 -1.715470 0.221802 100 7
0.253149 -0.767249 -0.099202 5 8
0.568190 -1.722081 0.287214 98 9
0.218496 -0.662222 -0.061009 13 10
0.564704 -1.711513 0.350325 88 11
0.230295 -0.697980 -0.038519 28 12
0.569688 -1.726619 0.419759 100 13
0.275688 -0.835560 -0.015358 25 14
0.564145 -1.709821 0.482439 89 15
0.271835 -0.843127 0.015463 42 1
0.275794 -0.855406 0.047102 20 3
0.455479 -1.412719 0.129862 32 5
0.553101 -1.715504 0.221315 94 7
0.250357 -0.776511 -0.100177 5 8
0.556455 -1.725909 0.287214 98 9
0.212761 -0.659901 -0.060660 14 10
0.553041 -1.715317 0.350325 86 11
0.221861 -0.688126 -0.037891 29 12
0.556128 -1.724893 0.418409 100 13
0.270608 -0.839320 -0.015393 17 14
0.553087 -1.715460 0.482956 86 15
0.274290 -0.850740 0.015602 40 1
0.273342 -0.847802 0.046684 15 3
0.550664 -1.707947 0.220340 100 7
0.221119 -0.685824 -0.088477 3 8
0.555849 -1.724029 0.286901 100 9
0.211538 -0.656108 -0.060312 14 10
0.553041 -1.715317 0.350325 86 11
0.218184 -0.676721 -0.037263 29 12
0.556128 -1.724893 0.418409 100 13
0.271221 -0.841223 -0.015428 17 14
0.553087 -1.715460 0.482956 91 15
0.272546 -0.865986 0.015847 39 1
0.269216 -0.855405 0.046998 12 3
0.541904 -1.721843 0.157926 96 5
0.541111 -1.719324 0.221315 97 7
0.240163 -0.763092 -0.098227 2 8
0.539649 -1.714678 0.284711 98 9
0.206952 -0.657569 -0.060312 14 10
0.542231 -1.722882 0.351089 80 11
0.215253 -0.683943 -0.037577 29 12
0.541147 -1.719439 0.416159 100 13
0.262941 -0.835467 -0.015288 17 14
0.539937 -1.715594 0.481921 84 15
0.268944 -0.854541 0.015637 43 1
0.270415 -0.859215 0.047207 10 3
0.539511 -1.714241 0.157229 65 5
0.539919 -1.715537 0.220827 40 7
0.228244 -0.725221 -0.093352 2 8
0.534904 -1.699603 0.282208 56 9
0.208148 -0.661370 -0.060660 14 10
0.217051 -0.689659 -0.037891 29 12
0.544072 -1.728733 0.418409 93 13
0.260539 -0.827837 -0.015149 17 14
0.535298 -1.700852 0.477780 28 15
0.261798 -0.852575 0.015568 45 1
0.217931 -0.709718 -0.091158 3 8
0.198263 -0.645666 -0.059092 14 10
0.473713 -1.542702 0.313690 9 11
0.208714 -0.679701 -0.037263 29 12
0.252993 -0.823901 -0.015044 18 14
0.264733 -0.862133 0.015742 40 1
0.464952 -1.514172 0.138578 6 5
0.466746 -1.520012 0.195235 33 7
0.174811 -0.569293 -0.073122 3 8
0.474899 -1.546563 0.256240 29 9
0.200602 -0.653284 -0.059789 14 10
0.467374 -1.522058 0.309492 26 11
0.203437 -0.662518 -0.036321 30 12
0.465635 -1.516394 0.366220 29 13
0.257689 -0.839193 -0.015323 17 14
0.468971 -1.527260 0.428087 20 15
0.259432 -0.865830 0.015777 40 1
0.456922 -1.524936 0.139275 6 5
0.454109 -1.515547 0.194260 32 7
0.184607 -0.616107 -0.078971 3 8
0.464361 -1.549760 0.256240 45 9
0.198438 -0.662269 -0.060486 14 10
0.455312 -1.519562 0.308347 25 11
0.203509 -0.679193 -0.037159 30 12
0.459218 -1.532596 0.369370 42 13
0.250249 -0.835181 -0.015218 17 14
0.460783 -1.537819 0.430157 27 15
0.261154 -0.871577 0.015882 39 1
0.455779 -1.521118 0.138926 6 5
0.456389 -1.523154 0.195235 33 7
0.184607 -0.616107 -0.078971 3 8
0.455856 -1.521376 0.251547 36 9
0.198438 -0.662269 -0.060486 14 10
0.460384 -1.536488 0.311782 28 11
0.200643 -0.669627 -0.036635 30 12
0.458658 -1.530729 0.368920 40 13
0.247379 -0.825604 -0.015044 18 14
0.456901 -1.524865 0.426534 23 15
0.255215 -0.873334 0.015882 35 1
0.440943 -1.508886 0.137532 6 5
0.447124 -1.530036 0.195722 32 7
0.171500 -0.586863 -0.075072 3 8
0.444935 -1.522547 0.251234 36 9
0.190572 -0.652130 -0.059440 14 10
0.448813 -1.535817 0.311019 26 11
0.198321 -0.678645 -0.037054 30 12
0.450415 -1.541297 0.370719 45 13
0.239510 -0.819591 -0.014904 18 14
0.443260 -1.516814 0.423428 23 15
0.252972 -0.865657 0.015742 40 1
0.441502 -1.510799 0.137706 6 5
0.446010 -1.526225 0.195235 35 7
0.181522 -0.621160 -0.079459 3 8
0.447706 -1.532028 0.252798 36 9
0.192808 -0.659779 -0.060137 14 10
0.445509 -1.524511 0.308729 24 11
0.199442 -0.682480 -0.037263 29 12
0.449322 -1.537557 0.369820 40 13
0.242314 -0.829188 -0.015079 18 14
0.445428 -1.524231 0.425499 22 15
0.248017 -0.871248 0.015812 35 1
0.433672 -1.523425 0.138578 7 5
0.432084 -1.517846 0.193772 35 7
0.154898 -0.544133 -0.069466 4 8
0.437000 -1.535116 0.252798 38 9
0.187652 -0.659193 -0.059963 14 10
0.434856 -1.527583 0.308729 25 11
0.191391 -0.672330 -0.036635 30 12
0.438577 -1.540656 0.369820 42 13
0.234330 -0.823166 -0.014939 18 14
0.435305 -1.529162 0.426016 27 15
0.250755 -0.880865 0.015986 34 1
0.492696 -1.730769 0.094309 84 3
0.433672 -1.523425 0.138578 9 5
0.430997 -1.514027 0.193285 35 7
0.173920 -0.610957 -0.077996 3 8
0.435377 -1.529416 0.251859 36 9
0.186015 -0.653444 -0.059440 14 10
0.434856 -1.527583 0.308729 24 11
0.191391 -0.672330 -0.036635 30 12
0.432174 -1.518164 0.364421 42 13
0.229950 -0.807780 -0.014660 19 14
0.436892 -1.534736 0.427569 22 15
0.245133 -0.884521 0.016021 34 1
0.482201 -1.739940 0.094623 84 3
0.419301 -1.512976 0.137357 9 5
0.420416 -1.516999 0.193285 35 7
0.199870 -0.721196 -0.091889 2 8
0.423107 -1.526707 0.250921 38 9
0.177192 -0.639367 -0.058046 15 10
0.424180 -1.530582 0.308729 25 11
0.186693 -0.673649 -0.036635 30 12
0.422606 -1.524900 0.365321 42 13
0.218964 -0.790095 -0.014311 20 14
0.423587 -1.528440 0.424981 23 15
0.245667 -0.886448 0.016056 31 1
0.479534 -1.730317 0.094100 87 3
0.419301 -1.512976 0.137357 9 5
0.424657 -1.532303 0.195235 33 7
0.179724 -0.648503 -0.082627 3 8
0.421524 -1.520997 0.249982 36 9
0.173999 -0.627846 -0.057000 15 10
0.426278 -1.538150 0.310255 26 11
0.187760 -0.677499 -0.036845 30 12
0.424167 -1.530534 0.366670 40 13
0.211487 -0.763116 -0.013822 37 14
0.423071 -1.526579 0.424463 22 15
0.236349 -0.876557 0.015847 35 1
0.469003 -1.739408 0.094414 85 3
0.410284 -1.521637 0.137880 9 5
0.411882 -1.527564 0.194260 37 7
0.186562 -0.691908 -0.087990 3 8
0.412952 -1.531531 0.251234 42 9
0.171687 -0.636741 -0.057697 15 10
0.410418 -1.522133 0.306439 25 11
0.184065 -0.682650 -0.037054 30 12
0.417023 -1.546629 0.369820 42 13
0.205114 -0.760712 -0.013752 33 14
0.412403 -1.529495 0.424463 22 15
0.238431 -0.884280 0.015986 34 1
0.468483 -1.737479 0.094309 91 3
0.409766 -1.519714 0.137706 9 5
0.409815 -1.519897 0.193285 37 7
0.176226 -0.653575 -0.083115 3 8
0.412952 -1.531531 0.251234 42 9
0.174280 -0.646359 -0.058569 14 10
0.409396 -1.518342 0.305676 24 11
0.179906 -0.667223 -0.036216 31 12
0.412964 -1.531577 0.366220 40 13
0.208237 -0.772297 -0.013962 31 14
0.413409 -1.533225 0.425499 23 15
0.235451 -0.897488 0.016196 30 1
0.453604 -1.729036 0.093681 100 3
0.398906 -1.520540 0.137532 10 5
0.398956 -1.520732 0.193041 38 7
0.150616 -0.574115 -0.072878 3 8
0.400011 -1.524753 0.249669 36 9
0.168865 -0.643676 -0.058220 20 10
0.403037 -1.536285 0.308729 26 11
0.176373 -0.672296 -0.036426 30 12
0.402035 -1.532467 0.365770 42 13
0.203483 -0.775631 -0.013997 36 14
0.402963 -1.536004 0.425499 23 15
0.236466 -0.901356 0.016266 30 1
0.455631 -1.736764 0.094100 100 3
0.396884 -1.512832 0.136835 10 5
0.399460 -1.522652 0.193285 35 7
0.400513 -1.526664 0.249982 42 9
0.169876 -0.647530 -0.058569 14 10
0.403037 -1.536285 0.308729 24 11
0.178401 -0.680023 -0.036845 30 12
0.398574 -1.519272 0.362621 45 13
0.202468 -0.771762 -0.013927 26 14
0.402473 -1.534135 0.424981 23 15
0.230168 -0.902985 0.016266 30 1
0.443495 -1.739903 0.094100 100 3
0.385820 -1.513635 0.136660 12 5
0.390782 -1.533098 0.194260 37 7
0.388869 -1.525594 0.249357 43 9
0.162399 -0.637117 -0.057523 15 10
0.391332 -1.535257 0.307966 23 11
0.176116 -0.690929 -0.037368 29 12
0.391327 -1.535237 0.365770 40 13
0.193618 -0.759593 -0.013683 44 14
0.389367 -1.527548 0.422393 21 15
0.228686 -0.897172 0.016161 27 1
0.445962 -1.749579 0.094623 99 3
0.384344 -1.507843 0.136137 12 5
0.388820 -1.525403 0.193285 37 7
0.388381 -1.523680 0.249044 38 9
0.163383 -0.640978 -0.057871 15 10
0.389392 -1.527647 0.306439 23 11
0.172662 -0.677381 -0.036635 30 12
0.396621 -1.556009 0.370719 45 13
0.200039 -0.784783 -0.014136 30 14
0.390321 -1.531292 0.423428 23 15
0.221288 -0.892846 0.016056 28 1
0.428583 -1.729235 0.093367 100 3
0.376732 -1.520028 0.137009 12 5
0.376785 -1.520241 0.192310 37 7
0.379218 -1.530057 0.249669 36 9
0.160087 -0.645915 -0.058220 15 10
0.379724 -1.532101 0.306821 22 11
0.166244 -0.670757 -0.036216 31 12
0.381605 -1.539690 0.366220 42 13
0.195792 -0.789975 -0.014206 41 14
0.380157 -1.533847 0.423428 21 15
0.224655 -0.906433 0.016301 30 1
0.427142 -1.723420 0.093053 67 3
0.375774 -1.516160 0.136660 12 5
0.375830 -1.516388 0.191822 35 7
0.380643 -1.535809 0.250608 42 9
0.160566 -0.647849 -0.058394 15 10
0.380197 -1.534007 0.307202 23 11
0.164803 -0.664941 -0.035902 31 12
0.376917 -1.520775 0.361721 42 13
0.198678 -0.801620 -0.014416 30 14
0.380157 -1.533847 0.423428 22 15
0.221901 -0.923572 0.016580 24 1
0.362122 -1.507187 0.135614 7 5
0.365897 -1.522899 0.192310 35 7
0.364567 -1.517366 0.247166 38 9
0.157788 -0.656731 -0.059092 14 10
0.370127 -1.540506 0.307966 23 11
0.165639 -0.689408 -0.037159 30 12
0.368757 -1.534802 0.364421 42 13
0.191068 -0.795244 -0.014276 50 14
0.369171 -1.536528 0.423428 22 15
0.222835 -0.927461 0.016650 27 1
0.299551 -1.246760 0.067199 24 3
0.354675 -1.476191 0.132825 4 5
0.369607 -1.538340 0.194260 33 7
0.366413 -1.525049 0.248418 38 9
0.158719 -0.660605 -0.059440 14 10
0.370127 -1.540506 0.307966 24 11
0.165173 -0.687466 -0.037054 60 12
0.369667 -1.538591 0.365321 42 13
0.194338 -0.808855 -0.014520 43 14
0.368269 -1.532771 0.422393 22 15
0.214994 -0.923151 0.016545 27 1
0.291745 -1.252711 0.067409 33 3
0.331255 -1.422358 0.127770 6 5
0.354806 -1.523483 0.192066 31 7
0.357550 -1.535265 0.249669 38 9
0.155911 -0.669459 -0.060137 14 10
0.356692 -1.531580 0.305676 24 11
0.158104 -0.678876 -0.036530 100 12
0.358917 -1.541134 0.365321 42 13
0.191408 -0.821877 -0.014730 38 14
0.356244 -1.529660 0.420840 25 15
0.216355 -0.928994 0.016650 27 1
0.289480 -1.242985 0.066885 57 3
0.324928 -1.395191 0.125330 8 5
0.339947 -1.459682 0.184023 43 7
0.357550 -1.535265 0.249669 45 9
0.159075 -0.683042 -0.061358 13 10
0.355801 -1.527756 0.304913 23 11
0.154480 -0.663314 -0.035693 100 12
0.356265 -1.529747 0.362621 42 13
0.193676 -0.831615 -0.014904 32 14
0.357559 -1.535304 0.422393 22 15
0.210304 -0.932432 0.016685 24 1
0.277720 -1.231337 0.066153 70 3
0.305097 -1.352723 0.121321 7 5
0.314025 -1.392308 0.175248 37 7
0.344650 -1.528089 0.248105 43 9
0.156494 -0.693854 -0.062229 13 10
0.347286 -1.539778 0.306821 22 11
0.148967 -0.660480 -0.035484 27 12
0.346434 -1.535999 0.363521 47 13
0.187425 -0.830996 -0.014869 41 14
0.347682 -1.541532 0.423428 23 15
0.217783 -0.965594 0.017278 22 1
0.279038 -1.237182 0.066467 83 3
0.305097 -1.352723 0.121321 14 5
0.304417 -1.349706 0.169886 50 7
0.342911 -1.520381 0.246854 43 9
0.154302 -0.684136 -0.061358 13 10
0.346854 -1.537863 0.306439 26 11
0.152482 -0.676067 -0.036321 38 12
0.344719 -1.528395 0.361721 45 13
0.187865 -0.832947 -0.014904 46 14
0.348532 -1.545301 0.424463 22 15
0.214791 -0.982646 0.017557 19 1
0.270827 -1.239006 0.066467 100 3
0.284206 -1.300217 0.116440 13 5
0.294187 -1.345877 0.169155 55 7
0.332821 -1.522622 0.246854 45 9
0.148485 -0.679305 -0.060835 13 10
0.336228 -1.538212 0.306058 22 11
0.152687 -0.698526 -0.037473 100 12
0.333743 -1.526840 0.360821 45 13
0.188315 -0.861524 -0.015393 38 14
0.336626 -1.540030 0.422393 22 15
0.225893 -1.033439 0.018465 27 1
0.271680 -1.242908 0.066676 100 3
0.279952 -1.280753 0.114697 18 5
0.302241 -1.382724 0.173786 48 7
0.333664 -1.526482 0.247479 42 9
0.141678 -0.648162 -0.058046 15 10
0.334132 -1.528622 0.304150 24 11
0.154393 -0.706331 -0.037891 100 12
0.334575 -1.530647 0.361721 45 13
0.193440 -0.884967 -0.015812 38 14
0.335801 -1.536255 0.421357 22 15
0.231901 -1.097599 0.019582 18 1
0.262583 -1.242820 0.066571 99 3
0.288714 -1.366498 0.122192 5 5
0.299556 -1.417818 0.177929 42 7
0.323816 -1.532639 0.248105 43 9
0.140444 -0.664730 -0.059440 4 10
0.325075 -1.538601 0.305676 24 11
