0.533207 3.358951 -0.297550 56 10
0.750410 4.727224 0.930385 65 11
0.532632 3.355325 -0.178047 49 12
0.751584 4.734618 1.106759 84 13
0.526698 3.317944 -0.058640 47 14
0.749614 4.722205 1.281154 71 15
0.484902 3.054647 -0.828739 15 0
0.559617 3.525315 0.062305 5 1
0.535580 3.373896 -0.788678 67 2
0.558622 3.519048 0.186735 15 3
0.532797 3.356368 -0.660581 65 4
0.558821 3.520306 0.311843 15 5
0.532990 3.357582 -0.538447 57 6
0.560821 3.532901 0.439217 15 7
0.530943 3.344688 -0.415818 57 8
0.751637 4.734952 0.759333 66 9
0.531958 3.351080 -0.296852 68 10
0.751949 4.736919 0.932293 68 11
0.531693 3.349407 -0.177733 83 12
0.749445 4.721146 1.103610 64 13
0.526071 3.313994 -0.058570 48 14
0.752037 4.737469 1.285295 80 15
0.500208 3.014977 -0.818903 11 0
0.580941 3.501595 0.061956 4 1
0.560397 3.377765 -0.790478 70 2
0.578599 3.487477 0.185269 15 3
0.557180 3.358377 -0.661726 61 4
0.578819 3.488802 0.309403 16 5
0.557711 3.361575 -0.539699 64 6
0.584171 3.521066 0.438242 16 7
0.554606 3.342858 -0.416062 53 8
0.785645 4.735436 0.760272 63 9
0.551753 3.325664 -0.294935 67 10
0.785965 4.737364 0.933438 70 11
0.556370 3.353495 -0.178152 72 12
0.784938 4.731178 1.107209 68 13
0.549194 3.310241 -0.058570 47 14
0.783511 4.722574 1.282707 83 15
0.503053 3.032129 -0.823562 13 0
0.579305 3.491732 0.061782 5 1
0.560716 3.379688 -0.790928 75 2
0.578272 3.485507 0.185165 15 3
0.557823 3.362250 -0.662489 58 4
0.574906 3.465216 0.307311 15 5
0.555124 3.345985 -0.537196 55 6
0.578323 3.485816 0.433855 15 7
0.556880 3.356566 -0.417768 49 8
0.787261 4.745179 0.761836 66 9
0.553709 3.337457 -0.295981 68 10
0.784679 4.729617 0.931911 70 11
0.554082 3.339703 -0.177419 72 12
0.786214 4.738868 1.109009 68 13
0.551812 3.326022 -0.058850 48 14
0.785092 4.732103 1.285295 80 15
0.521769 3.011320 -0.818903 8 0
0.601545 3.471734 0.061502 5 1
0.583555 3.367908 -0.789128 79 2
0.598425 3.453729 0.183699 15 3
0.581198 3.354304 -0.661726 57 4
0.596626 3.443345 0.305742 15 5
0.580065 3.347766 -0.538135 60 6
0.598846 3.456161 0.430686 15 7
0.580884 3.352496 -0.417768 52 8
0.822883 4.749156 0.763400 60 9
0.578258 3.337335 -0.296330 67 10
0.820514 4.735487 0.934201 70 11
0.577284 3.331717 -0.177210 70 12
0.819772 4.731200 1.108559 70 13
0.576281 3.325929 -0.058919 48 14
0.819593 4.730171 1.286331 80 15
0.523089 3.018934 -0.820974 10 0
0.600521 3.465823 0.061398 5 1
0.581226 3.354467 -0.785979 56 2
0.592969 3.422242 0.182024 13 3
0.582874 3.363976 -0.663634 51 4
0.594245 3.429603 0.304522 16 5
0.581751 3.357498 -0.539699 60 6
0.594441 3.430733 0.427518 15 7
0.581223 3.354452 -0.418012 54 8
0.822883 4.749156 0.763400 63 9
0.580979 3.353040 -0.297724 68 10
0.821520 4.741291 0.935346 68 11
0.577966 3.335653 -0.177419 67 12
0.819106 4.727360 1.107659 66 13
0.575598 3.321989 -0.058850 46 14
0.822232 4.745399 1.290472 75 15
0.542940 3.011501 -0.819939 11 0
0.624452 3.463623 0.061432 5 1
0.606466 3.363858 -0.789128 58 2
0.614478 3.408298 0.181501 16 3
0.604713 3.354134 -0.662489 55 4
0.614040 3.405871 0.302779 15 5
0.605993 3.361236 -0.540950 60 6
0.615666 3.414886 0.426055 15 7
0.603691 3.348464 -0.417768 52 8
0.854489 4.739557 0.762774 63 9
0.604496 3.352930 -0.298073 68 10
0.856212 4.749114 0.938017 70 11
0.602075 3.339504 -0.177838 67 12
0.853685 4.735100 1.110808 74 13
0.598197 3.317993 -0.058850 46 14
0.853828 4.735890 1.289436 75 15
0.543625 3.015304 -0.820974 10 0
0.619485 3.436072 0.060944 5 1
0.610961 3.388789 -0.794977 70 2
0.610934 3.388643 0.180454 18 3
0.606106 3.361862 -0.664015 55 4
0.610152 3.384302 0.300862 17 5
0.605993 3.361236 -0.540950 56 6
0.613552 3.403165 0.424593 15 7
0.605099 3.356278 -0.418743 50 8
0.856592 4.751221 0.764652 63 9
0.603082 3.345087 -0.297375 71 10
0.856560 4.751046 0.938399 66 11
0.606327 3.363090 -0.179094 67 12
0.854723 4.740853 1.112158 70 13
0.598907 3.321929 -0.058919 50 14
0.853142 4.732088 1.288401 80 15
0.563951 3.007638 -0.819939 10 0
0.642353 3.425767 0.060839 5 1
0.635681 3.390188 -0.796327 75 2
0.632368 3.372517 0.179826 17 3
0.631009 3.365268 -0.665542 58 4
0.630459 3.362336 0.299293 18 5
0.628716 3.353040 -0.540325 60 6
0.633637 3.379287 0.422155 15 7
0.630711 3.363679 -0.420206 49 8
0.890833 4.750950 0.765590 58 9
0.627889 3.348628 -0.298073 68 10
0.889346 4.743021 0.938017 70 11
0.626847 3.343071 -0.178256 68 12
0.890313 4.748178 1.115307 74 13
0.623557 3.325529 -0.059059 47 14
0.886870 4.729814 1.289436 78 15
0.566799 3.022828 -0.824080 11 0
0.637930 3.402181 0.060420 4 1
0.630294 3.361457 -0.789578 63 2
0.627583 3.346997 0.178466 13 3
0.631009 3.365268 -0.665542 57 4
0.628990 3.354503 0.298596 17 5
0.628716 3.353040 -0.540325 58 6
0.629613 3.357826 0.419474 12 7
0.629979 3.359776 -0.419718 49 8
0.893017 4.762599 0.767467 58 9
0.628623 3.352544 -0.298421 67 10
0.889346 4.743021 0.938017 70 11
0.626847 3.343071 -0.178256 68 12
0.889595 4.744348 1.114408 74 13
0.625032 3.333391 -0.059199 48 14
0.889718 4.745004 1.293578 80 15
0.589365 3.026382 -0.826150 11 0
0.665489 3.417273 0.060769 1 1
0.653746 3.356975 -0.789578 55 2
0.651697 3.346455 0.178675 31 3
0.655238 3.364635 -0.666305 57 4
0.652013 3.348074 0.298421 35 5
0.654375 3.360204 -0.542202 55 6
0.654937 3.363091 0.420693 15 7
0.653419 3.355297 -0.419718 49 8
0.927755 4.764005 0.768719 66 9
0.655059 3.363719 -0.299816 64 10
0.925814 4.754040 0.941452 68 11
0.650934 3.342534 -0.178466 68 12
0.923067 4.739934 1.114857 76 13
0.648288 3.328946 -0.059199 47 14
0.923561 4.742469 1.294613 80 15
0.589365 3.026382 -0.826150 11 0
0.663577 3.407459 0.060595 1 1
0.658589 3.381842 -0.795427 59 2
0.648643 3.330772 0.177838 25 3
0.654487 3.360780 -0.665542 57 4
0.651251 3.344163 0.298073 41 5
0.657773 3.377654 -0.545018 60 6
0.705404 3.622240 0.453110 20 7
0.654178 3.359194 -0.420206 49 8
0.926244 4.756249 0.767467 76 9
0.654298 3.359808 -0.299467 68 10
0.928816 4.769456 0.944504 64 11
0.653224 3.354297 -0.179094 68 12
0.925675 4.753324 1.118007 90 13
0.646759 3.321095 -0.059059 47 14
0.923930 4.744366 1.295130 83 15
0.605124 2.995683 -0.818903 8 0
0.684578 3.389023 0.060350 5 1
0.683340 3.382892 -0.796777 57 2
0.675044 3.341824 0.178675 23 3
0.678711 3.359978 -0.666305 58 4
0.672609 3.329770 0.297201 32 5
0.680946 3.371043 -0.544705 58 6
0.728710 3.607498 0.451892 22 7
0.679579 3.364274 -0.421424 47 8
0.960600 4.755476 0.768406 100 9
0.677737 3.355159 -0.299467 67 10
0.958981 4.747460 0.941452 103 11
0.678998 3.361401 -0.179722 61 12
0.959222 4.748656 1.118457 100 13
0.672304 3.328259 -0.059268 45 14
0.955882 4.732120 1.293578 85 15
0.612392 3.031662 -0.828739 16 0
0.682202 3.377262 0.060141 5 1
0.683340 3.382892 -0.796777 46 2
0.676626 3.349655 0.179094 25 3
0.680266 3.367676 -0.667831 57 4
0.675371 3.343441 0.298421 25 5
0.680555 3.369107 -0.544392 60 6
0.725565 3.591931 0.449942 26 7
0.681544 3.374003 -0.422643 49 8
0.959035 4.747730 0.767155 27 9
0.678526 3.359064 -0.299816 67 10
0.957037 4.737838 0.939543 24 11
0.680185 3.367274 -0.180036 61 12
0.961151 4.758206 1.120706 30 13
0.673096 3.332180 -0.059338 47 14
0.958177 4.743481 1.296683 85 15
0.624044 2.981931 -0.816315 8 0
0.706992 3.378289 0.060246 5 1
0.706940 3.378039 -0.796777 40 2
0.700812 3.348759 0.179303 23 3
0.705369 3.370531 -0.669358 60 4
0.700736 3.348395 0.299293 25 5
0.704464 3.366207 -0.544705 58 6
0.744931 3.559577 0.446529 22 7
0.704676 3.367220 -0.422399 45 8
0.984873 4.706116 0.761523 13 9
0.703593 3.362046 -0.300513 67 10
0.978830 4.677236 0.928858 12 11
0.701221 3.350714 -0.179408 60 12
0.984367 4.703695 1.109459 14 13
0.698800 3.339143 -0.059548 47 14
0.988499 4.723440 1.293060 51 15
0.629584 3.008404 -0.823562 12 0
0.704944 3.368502 0.060071 5 1
0.709734 3.391391 -0.799926 36 2
0.699176 3.340940 0.178884 20 3
0.706173 3.374374 -0.670121 57 4
0.704817 3.367896 0.301036 22 5
0.706487 3.375875 -0.546269 60 6
0.742898 3.549862 0.445311 19 7
0.703456 3.361391 -0.421668 48 8
0.977995 4.673247 0.756204 43 9
0.707674 3.381547 -0.302256 64 10
0.974004 4.654177 0.924279 43 11
0.702858 3.358534 -0.179826 64 12
0.697981 3.335228 -0.059478 45 14
0.971879 4.644022 1.271319 16 15
0.649754 3.000159 -0.822527 10 0
0.728867 3.365453 0.060106 5 1
0.733393 3.386353 -0.799926 30 2
0.725442 3.349641 0.179617 17 3
0.728882 3.365524 -0.669358 60 4
0.726204 3.353158 0.300164 18 5
0.732128 3.380513 -0.547834 62 6
0.764721 3.531008 0.443604 22 7
0.727325 3.358338 -0.421912 45 8
1.009760 4.662444 0.755578 87 9
0.730421 3.372630 -0.301907 63 10
1.008965 4.658776 0.926568 63 11
0.728824 3.365257 -0.180454 59 12
1.008106 4.654808 1.099561 70 13
0.721248 3.330275 -0.059478 46 14
0.989556 4.569153 1.252684 17 15
0.648527 2.994495 -0.820974 10 0
0.729290 3.367408 0.060141 13 1
0.737518 3.405399 -0.804425 25 2
0.729670 3.369161 0.180664 16 3
0.730129 3.371281 -0.670503 54 4
0.728734 3.364841 0.301210 18 5
0.732546 3.382444 -0.548146 67 6
0.762620 3.521307 0.442386 19 7
0.729006 3.366098 -0.422887 47 8
1.006833 4.648930 0.753388 17 9
0.727890 3.360946 -0.300862 64 10
1.002732 4.629995 0.920844 12 11
0.732206 3.380873 -0.181292 59 12
1.004393 4.637666 1.095512 16 13
0.722094 3.334183 -0.059548 46 14
0.982195 4.535168 1.243367 18 15
0.668994 2.988009 -0.820456 10 0
0.745790 3.331012 0.059583 4 1
0.762125 3.403971 -0.805325 22 2
0.757536 3.383475 0.181710 16 3
0.756649 3.379512 -0.673174 57 4
0.753078 3.363560 0.301559 16 5
0.756574 3.379175 -0.548459 65 6
0.782414 3.494589 0.439705 22 7
0.755090 3.372550 -0.424349 45 8
1.034516 4.620584 0.749947 84 9
0.753078 3.363560 -0.301559 63 10
0.754045 3.367883 -0.180873 60 12
1.032062 4.609623 1.090563 56 13
0.747975 3.340769 -0.059757 46 14
1.002858 4.479186 1.229908 18 15
0.668994 2.988009 -0.820456 10 0
0.751470 3.356380 0.060036 5 1
0.762551 3.405873 -0.805775 18 2
0.757536 3.383475 0.181710 17 3
0.756220 3.377596 -0.672792 54 4
0.756125 3.377170 0.302779 18 5
0.755711 3.375320 -0.547834 65 6
0.779378 3.481029 0.437998 23 7
0.755524 3.374487 -0.424593 49 8
1.028043 4.591669 0.745254 31 9
0.757431 3.383003 -0.303302 64 10
1.025165 4.578818 0.912067 33 11
0.753173 3.363985 -0.180664 60 12
1.026527 4.584901 1.084714 32 13
0.751470 3.356380 -0.060036 47 14
0.991040 4.426401 1.215414 15 15
0.692450 2.994559 -0.823562 10 0
0.774884 3.351052 0.060036 4 1
0.790700 3.419452 -0.810274 14 2
0.782039 3.381996 0.181920 21 3
0.781109 3.377973 -0.673937 55 4
0.781928 3.381515 0.303651 21 5
0.781926 3.381509 -0.549711 62 6
0.797847 3.450361 0.434830 24 7
0.777722 3.363328 -0.423862 45 8
1.050727 4.543963 0.738684 26 9
0.781928 3.381515 -0.303651 61 10
1.048702 4.535206 0.904816 29 11
0.778439 3.366429 -0.181082 59 12
1.046657 4.526360 1.072567 22 13
0.773081 3.343259 -0.059897 45 14
1.012778 4.379848 1.204544 16 15
0.691144 2.988913 -0.822009 10 0
0.782542 3.384173 0.060630 4 1
0.792895 3.428946 -0.812523 13 2
0.781139 3.378104 0.181710 23 3
0.780224 3.374148 -0.673174 60 4
0.784172 3.391221 0.304522 31 5
0.784597 3.393057 -0.551588 62 6
0.796953 3.446492 0.434342 24 7
0.779958 3.372998 -0.425080 49 8
1.036486 4.482377 0.728672 26 9
0.781928 3.381515 -0.303651 59 10
1.037203 4.485474 0.894894 30 11
0.780239 3.374212 -0.181501 60 12
1.037876 4.488388 1.063569 22 13
0.773081 3.343259 -0.059897 46 14
0.994934 4.302679 1.183321 20 15
0.712442 2.985893 -0.822527 9 0
0.814503 3.413639 0.061258 5 1
0.819980 3.436595 -0.815673 12 2
0.811656 3.401709 0.183281 24 3
0.803305 3.366709 -0.672792 54 4
0.808753 3.389539 0.304871 22 5
0.807348 3.383654 -0.550962 62 6
0.816387 3.421536 0.431905 24 7
0.803026 3.365540 -0.424837 47 8
1.056751 4.428917 0.721163 24 9
0.806441 3.379849 -0.303999 59 10
1.055733 4.424653 0.884209 29 11
0.807485 3.384225 -0.182338 57 12
1.058331 4.435539 1.052771 22 13
0.798259 3.345561 -0.060036 48 14
1.017326 4.263683 1.174521 22 15
0.710648 2.978377 -0.820456 9 0
0.817752 3.427255 0.061502 4 1
0.819076 3.432804 -0.814773 12 2
0.813974 3.411423 0.183804 23 3
0.807406 3.383895 -0.676227 60 4
0.812452 3.405043 0.306265 22 5
0.807348 3.383654 -0.550962 62 6
0.812701 3.406089 0.429955 12 7
0.806251 3.379056 -0.426543 49 8
1.046664 4.386645 0.714280 26 9
0.807365 3.383726 -0.304348 61 10
1.044798 4.378822 0.875050 27 11
0.807485 3.384225 -0.182338 55 12
1.049285 4.397629 1.043773 24 13
0.799187 3.349451 -0.060106 46 14
1.012842 4.244892 1.169344 20 15
0.735577 2.990227 -0.825115 10 0
0.845957 3.438939 0.061816 5 1
0.842555 3.425110 -0.814323 12 2
0.837770 3.405657 0.183804 22 3
0.834762 3.393428 -0.679280 55 4
0.838107 3.407027 0.306963 18 5
0.833782 3.389444 -0.552839 62 6
1.068810 4.344869 0.549387 29 7
0.831718 3.381056 -0.427518 54 8
1.069713 4.348540 0.709274 24 9
0.831920 3.381876 -0.304696 57 10
1.066901 4.337106 0.868181 30 11
0.829183 3.370747 -0.181920 57 12
1.067858 4.340996 1.032075 24 13
0.826373 3.359325 -0.060385 45 14
1.042913 4.239594 1.169862 15 15
0.732347 2.977095 -0.821492 10 0
0.849779 3.454473 0.062096 4 1
0.843952 3.430787 -0.815673 12 2
0.833355 3.387708 -0.678135 54 4
0.834726 3.393281 -0.553465 58 6
1.056956 4.296678 0.543294 26 7
0.829822 3.373345 -0.426543 49 8
1.060748 4.312094 0.703329 29 9
0.834776 3.393484 -0.305742 57 10
1.056583 4.295165 0.859785 30 11
0.832999 3.386263 -0.182757 56 12
1.057151 4.297472 1.021728 22 13
0.824462 3.351557 -0.060246 45 14
1.046144 4.252725 1.173486 16 15
0.755960 2.983146 -0.824597 10 0
0.879769 3.471717 0.062515 4 1
0.870276 3.434257 -0.817922 12 2
0.856985 3.381808 -0.678135 54 4
1.077707 4.252815 0.383834 11 5
0.861306 3.398860 -0.555342 61 6
1.078149 4.254557 0.538906 26 7
0.855302 3.375167 -0.427518 56 8
1.074328 4.239479 0.692692 29 9
0.858446 3.387573 -0.305742 55 10
1.074969 4.242009 0.850627 30 11
0.858582 3.388109 -0.183176 57 12
1.077553 4.252206 1.012730 22 13
0.847840 3.345720 -0.060246 46 14
1.072486 4.232209 1.169862 24 15
0.756435 2.985018 -0.825115 10 0
0.885172 3.493040 0.062898 5 1
0.871712 3.439924 -0.819272 11 2
1.071020 4.226424 0.228499 26 3
0.857950 3.385614 -0.678898 54 4
1.068408 4.216119 0.380522 23 5
0.860336 3.395030 -0.554717 61 6
1.070347 4.223769 0.535006 27 7
0.858228 3.386712 -0.428980 58 8
1.066079 4.206926 0.687373 30 9
0.857467 3.383711 -0.305394 56 10
1.065324 4.203947 0.842994 29 11
0.861526 3.399725 -0.183804 56 12
1.069415 4.220093 1.005081 26 13
0.850787 3.357350 -0.060455 47 14
1.065367 4.204119 1.162097 45 15
0.774330 2.968449 -0.822009 10 0
0.913070 3.500320 0.063143 4 1
0.894230 3.428097 -0.817922 13 2
1.092433 4.187923 0.226824 26 3
0.885529 3.394740 -0.681951 54 4
1.090775 4.181568 0.378082 26 5
0.883019 3.385118 -0.554091 58 6
1.089286 4.175857 0.529888 29 7
0.882853 3.384480 -0.429468 55 8
1.089938 4.178356 0.683932 30 9
0.883081 3.385354 -0.306091 55 10
1.085727 4.162213 0.836125 27 11
0.884231 3.389763 -0.183595 56 12
1.088521 4.172926 0.995633 28 13
0.875215 3.355199 -0.060525 46 14
1.084452 4.157324 1.151227 40 15
0.774817 2.970319 -0.822527 10 0
0.893739 3.426212 -0.817472 11 2
1.082351 4.149271 0.224731 26 3
0.889493 3.409937 -0.685004 51 4
1.080718 4.143010 0.374595 27 5
0.885014 3.392764 -0.555342 61 6
1.075758 4.123995 0.523307 30 7
0.883354 3.386401 -0.429711 64 8
1.077971 4.132482 0.676423 31 9
0.883081 3.385354 -0.306091 55 10
1.076807 4.128019 0.829256 30 11
0.884231 3.389763 -0.183595 55 12
1.076224 4.125785 0.984386 24 13
0.878243 3.366809 -0.060734 45 14
1.076162 4.125546 1.142427 36 15
0.794534 2.961105 -0.821492 10 0
1.103319 4.111901 0.074312 25 1
0.916626 3.416125 -0.816572 10 2
1.101457 4.104962 0.222742 27 3
0.912260 3.399852 -0.684241 50 4
1.100321 4.100727 0.371458 27 5
0.911749 3.397950 -0.557220 57 6
1.096805 4.087625 0.519651 29 7
0.906459 3.378234 -0.429468 58 8
1.097580 4.090514 0.670791 33 9
0.912889 3.402198 -0.308183 56 10
1.094406 4.078685 0.820860 32 11
0.908909 3.387366 -0.183804 56 12
1.093891 4.076763 0.974488 24 13
0.902763 3.364458 -0.060804 46 14
1.097928 4.091811 1.135180 37 15
0.792531 2.953642 -0.819421 9 0
1.096064 4.084862 0.073824 28 1
0.917636 3.419889 -0.817472 9 2
1.089035 4.058666 0.220230 27 3
0.911751 3.397956 -0.683859 51 4
1.092059 4.069938 0.368669 27 5
0.914821 3.409397 -0.559097 57 6
1.089089 4.058866 0.515995 30 7
0.909546 3.389738 -0.430930 55 8
1.086830 4.050448 0.664221 35 9
0.910824 3.394501 -0.307485 52 10
1.087283 4.052138 0.815518 31 11
0.910980 3.395082 -0.184223 55 12
1.087326 4.052296 0.968639 28 13
0.900690 3.356733 -0.060665 45 14
1.087915 4.054494 1.124828 40 15
0.809023 2.933139 -0.815280 8 0
1.111794 4.030845 0.072986 27 1
0.942007 3.415278 -0.817922 7 2
1.107784 4.016307 0.218346 27 3
1.110910 4.027642 0.365531 24 5
0.927571 3.362938 -0.552527 15 6
1.108425 4.018632 0.511851 29 7
0.931077 3.375651 -0.429955 39 8
1.104051 4.002772 0.657650 31 9
0.934500 3.388060 -0.307485 52 10
1.104062 4.002812 0.807122 29 11
0.937846 3.400191 -0.184851 56 12
1.109371 4.022063 0.963240 30 13
0.927292 3.361929 -0.060874 45 14
1.101812 3.994655 1.110334 42 15
0.806968 2.925689 -0.813209 8 0
1.101160 3.992291 0.072288 27 1
1.103536 4.000905 0.217508 27 3
0.847230 3.071661 -0.619366 3 4
1.098196 3.981546 0.361348 27 5
0.843007 3.056351 -0.502155 3 6
1.098924 3.984187 0.507464 32 7
1.098273 3.981825 0.654209 35 9
0.927083 3.361170 -0.305045 15 10
1.094665 3.968745 0.800253 27 11
0.936784 3.396341 -0.184641 56 12
1.096936 3.976977 0.952443 31 13
0.930483 3.373496 -0.061083 45 14
1.092052 3.959271 1.100499 38 15
0.829480 2.927419 -0.815280 8 0
1.119191 3.949875 0.071660 28 1
0.858513 3.029883 -0.727042 4 2
1.121639 3.958514 0.215624 26 3
0.859555 3.033561 -0.612879 4 4
1.119448 3.950779 0.359256 27 5
0.862170 3.042789 -0.500903 4 6
1.113183 3.928670 0.501370 32 7
0.858834 3.031016 -0.386813 3 8
1.115274 3.936050 0.647952 31 9
1.113782 3.930784 0.794147 29 11
1.115111 3.935473 0.944345 31 13
0.957282 3.378461 -0.061293 43 14
1.112820 3.927388 1.093769 36 15
0.832640 2.938571 -0.818386 8 0
1.110469 3.919092 0.071101 28 1
0.846825 2.988634 -0.717144 4 2
1.107482 3.908552 0.212903 28 3
0.855273 3.018450 -0.609826 4 4
1.112387 3.925859 0.356990 30 5
0.857323 3.025684 -0.498087 4 6
1.105065 3.900022 0.497714 30 7
0.855046 3.017647 -0.385107 4 8
1.107196 3.907542 0.643259 31 9
0.862534 3.044075 -0.276807 5 10
1.104148 3.896784 0.787278 30 11
0.863553 3.047671 -0.166010 3 12
1.102892 3.892349 0.933997 31 13
0.959463 3.386157 -0.061432 46 14
1.105447 3.901367 1.086522 36 15
0.848817 2.917847 -0.814245 8 0
1.131099 3.888203 0.070682 28 1
0.864403 2.971423 -0.714445 4 2
1.127489 3.875794 0.211542 28 3
0.869196 2.987899 -0.604865 4 4
1.127523 3.875910 0.353155 30 5
0.875115 3.008244 -0.496210 4 6
1.122285 3.857902 0.493327 30 7
0.869438 2.988730 -0.382182 4 8
1.122310 3.857988 0.636375 35 9
0.874860 3.007370 -0.274018 5 10
1.121455 3.855049 0.780409 31 11
0.880346 3.026226 -0.165172 3 12
1.121873 3.856488 0.927248 30 13
0.980845 3.371696 -0.061293 43 14
1.124022 3.863875 1.078240 39 15
0.852055 2.928977 -0.817351 8 0
1.123838 3.863241 0.070228 33 1
0.858415 2.950840 -0.709496 4 2
1.116332 3.837439 0.209448 28 3
0.860970 2.959622 -0.599140 4 4
1.115836 3.835735 0.349495 28 5
0.865734 2.976000 -0.490891 4 6
1.116185 3.836936 0.490646 32 7
0.865002 2.973482 -0.380232 4 8
1.111274 3.820053 0.630118 33 9
0.865956 2.976760 -0.271229 5 10
1.110487 3.817347 0.772776 29 11
0.870304 2.991707 -0.163288 3 12
1.114797 3.832162 0.921400 31 13
0.981962 3.375536 -0.061363 45 14
1.109992 3.815646 1.064782 40 15
0.872524 2.924960 -0.817868 9 0
1.135817 3.807596 0.069356 27 1
0.871796 2.922519 -0.704097 4 2
1.136146 3.808698 0.208297 31 3
0.876606 2.938642 -0.596087 5 4
1.135085 3.805140 0.347403 27 5
0.879760 2.949215 -0.487450 4 6
1.134332 3.802617 0.487234 30 7
0.881817 2.956112 -0.378770 4 8
1.130474 3.789685 0.626364 33 9
0.878224 2.944067 -0.268788 3 10
1.126343 3.775835 0.765907 27 11
0.883796 2.962746 -0.162032 3 12
1.134171 3.802076 0.916001 33 13
1.010632 3.387936 -0.061712 45 14
1.126551 3.776531 1.055982 40 15
0.871420 2.921258 -0.816833 9 0
1.126671 3.776936 0.068797 26 1
0.860655 2.885171 -0.695099 4 2
1.123586 3.766592 0.205994 28 3
0.871555 2.921710 -0.592653 4 4
1.124833 3.770773 0.344265 27 5
0.873548 2.928393 -0.484008 4 6
1.121281 3.758865 0.481628 33 7
0.873305 2.927578 -0.375114 4 8
1.120310 3.755612 0.620732 35 9
0.880502 2.951704 -0.269486 3 10
1.118486 3.749497 0.760565 33 11
0.874661 2.932124 -0.160357 5 12
1.124144 3.768462 0.907902 35 13
1.014061 3.399434 -0.061921 43 14
1.118267 3.748763 1.048217 39 15
0.895184 2.926187 -0.819939 9 0
1.143067 3.736470 0.068204 26 1
0.878496 2.871638 -0.693299 4 2
1.142258 3.733828 0.204634 28 3
0.885039 2.893026 -0.588073 4 4
1.142970 3.736156 0.341825 28 5
0.888770 2.905222 -0.481192 4 6
1.136461 3.714879 0.476997 31 7
0.885011 2.892936 -0.371458 4 8
1.138412 3.721254 0.616352 33 9
0.891762 2.915001 -0.266697 3 10
1.138892 3.722823 0.756748 34 11
0.889267 2.906847 -0.159311 5 12
1.132182 3.700891 0.893506 31 13
1.035429 3.384623 -0.061782 45 14
1.137629 3.718696 1.042006 37 15
0.893488 2.920645 -0.818386 8 0
1.136047 3.713524 0.067785 28 1
0.872795 2.853003 -0.688800 4 2
1.132910 3.703270 0.202959 30 3
0.874701 2.859233 -0.581204 4 4
1.133062 3.703767 0.338862 31 5
0.882991 2.886333 -0.478064 4 6
1.131235 3.697795 0.474803 36 7
0.881527 2.881546 -0.369995 4 8
1.128588 3.689141 0.611033 37 9
0.877190 2.867371 -0.262339 3 10
1.129703 3.692785 0.750643 35 11
0.879919 2.876289 -0.157636 5 12
1.127052 3.684120 0.889456 31 13
1.037769 3.392272 -0.061921 43 14
1.129717 3.692833 1.034759 35 15
0.910388 2.903276 -0.815280 10 0
1.153568 3.678789 0.067296 31 1
0.887444 2.830105 -0.684751 4 2
1.152162 3.674307 0.201807 31 3
0.888767 2.834324 -0.577388 4 4
1.148161 3.661546 0.335724 28 5
0.890117 2.838631 -0.471181 4 6
1.149895 3.667077 0.471878 33 7
0.893901 2.850698 -0.366827 4 8
1.148405 3.662323 0.607904 37 9
0.891226 2.842166 -0.260596 3 10
1.143707 3.647342 0.743010 34 11
0.895197 2.854830 -0.156799 4 12
1.143998 3.648270 0.882708 31 13
1.062623 3.388760 -0.061991 45 14
1.142754 3.644303 1.023371 36 15
0.908654 2.897746 -0.813727 11 0
1.142200 3.642535 0.066633 30 1
0.878114 2.800354 -0.677553 4 2
1.144394 3.649532 0.200447 35 3
0.881130 2.809971 -0.572427 4 4
1.139815 3.634930 0.333284 28 5
0.880660 2.808473 -0.466175 4 6
1.140986 3.638665 0.468222 30 7
0.886180 2.826074 -0.363658 4 8
1.137766 3.628396 0.602273 39 9
0.887649 2.830759 -0.259550 3 10
1.133133 3.613623 0.736141 33 11
0.885635 2.824337 -0.155124 4 12
1.139333 3.633394 0.879109 31 13
1.065016 3.396392 -0.062131 43 14
1.133505 3.614809 1.015088 39 15
0.932407 2.902367 -0.816833 10 0
1.159038 3.607819 0.066145 30 1
0.889298 2.768180 -0.671254 4 2
1.157015 3.601521 0.198249 33 3
0.891719 2.775714 -0.566703 4 4
1.157851 3.604122 0.331192 28 5
0.891787 2.775926 -0.461795 4 6
1.156039 3.598482 0.464078 33 7
0.894351 2.783909 -0.359027 4 8
1.154610 3.594034 0.597893 35 9
0.897639 2.794143 -0.256761 3 10
1.149927 3.579456 0.730798 32 11
0.898000 2.795268 -0.153868 4 12
1.153942 3.591955 0.871010 33 13
1.091148 3.396490 -0.062270 42 14
1.153396 3.590254 1.010430 35 15
0.938316 2.920760 -0.822009 14 0
1.150476 3.581165 0.065656 30 1
0.880954 2.742206 -0.664955 4 2
1.147241 3.571097 0.196574 33 3
0.886314 2.758891 -0.563268 4 4
1.152976 3.588946 0.329797 28 5
0.885141 2.755238 -0.458353 4 6
1.145717 3.566352 0.459935 39 7
0.884637 2.753670 -0.355127 4 8
1.145547 3.565824 0.593199 35 9
0.897639 2.794143 -0.256761 3 10
1.142721 3.557026 0.726219 32 11
0.889448 2.768646 -0.152402 4 12
1.143213 3.558559 0.862912 35 13
1.092371 3.400298 -0.062340 40 14
1.144533 3.562665 1.002665 37 15
0.952646 2.895787 -0.816833 15 0
1.169200 3.554050 0.065307 28 1
0.894596 2.719328 -0.660906 4 2
1.164654 3.540234 0.195318 33 3
0.895123 2.720932 -0.556781 4 4
1.164928 3.541065 0.326137 31 5
0.898181 2.730227 -0.455224 4 6
1.162522 3.533753 0.456766 34 7
0.893294 2.715371 -0.350984 4 8
1.158067 3.520211 0.586942 35 9
0.907784 2.759419 -0.254146 3 10
1.162617 3.534042 0.723166 31 11
0.903762 2.747191 -0.151565 4 12
1.155849 3.513468 0.853914 32 13
1.157303 3.517886 0.992312 37 15
0.949628 2.886612 -0.814245 12 0
1.160451 3.527456 0.064818 27 1
0.889724 2.704519 -0.657307 4 2
1.156541 3.515570 0.193957 30 3
0.887761 2.698553 -0.552201 4 4
1.156211 3.514569 0.323696 33 5
0.887687 2.698328 -0.449906 4 6
1.156319 3.514896 0.454329 33 7
0.887090 2.696514 -0.348546 4 8
1.151277 3.499570 0.583501 35 9
0.888483 2.700748 -0.248742 3 10
1.154028 3.507933 0.717823 34 11
0.900641 2.737705 -0.151042 4 12
1.148541 3.491255 0.848515 30 13
1.150662 3.497700 0.986618 38 15
0.972840 2.889066 -0.816833 9 0
1.172286 3.481366 0.064120 28 1
0.899255 2.670539 -0.650558 4 2
1.175956 3.492267 0.193120 30 3
0.901567 2.677405 -0.549148 4 4
1.168639 3.470535 0.320385 38 5
0.900199 2.673344 -0.446777 4 6
1.171327 3.478518 0.450673 35 7
0.903993 2.684611 -0.347815 4 8
1.170007 3.474598 0.580685 35 9
0.902865 2.681262 -0.247522 4 10
1.165333 3.460718 0.709809 35 11
0.910171 2.702958 -0.149471 4 12
1.166668 3.464683 0.844016 29 13
1.082306 3.214152 -0.059199 2 14
1.164572 3.458458 0.977818 35 15
0.975306 2.896389 -0.818903 4 0
1.163990 3.456729 0.063666 33 1
0.892414 2.650224 -0.645609 4 2
1.166396 3.463875 0.191550 34 3
0.895301 2.658799 -0.545332 4 4
1.161644 3.449765 0.318467 32 5
0.894526 2.656495 -0.443961 4 6
1.156756 3.435249 0.445067 31 7
0.895124 2.658273 -0.344403 4 8
1.165594 3.461494 0.578495 36 9
0.896507 2.662380 -0.245779 4 10
1.155308 3.430948 0.703704 34 11
0.901885 2.678351 -0.148111 4 12
1.157961 3.438827 0.837718 30 13
1.084859 3.221733 -0.059338 3 14
1.157174 3.436487 0.971607 37 15
1.183534 3.435285 0.063422 34 1
0.908990 2.638402 -0.644260 9 2
1.176237 3.414104 0.189247 39 3
0.911283 2.645059 -0.543806 8 4
1.181806 3.430269 0.317421 33 5
0.908545 2.637112 -0.441771 6 6
1.174244 3.408321 0.442629 33 7
0.909781 2.640698 -0.342940 6 8
1.177506 3.417787 0.572550 34 9
0.914423 2.654173 -0.245605 4 10
1.170280 3.396813 0.698361 32 11
0.914706 2.654995 -0.147169 4 12
1.171149 3.399337 0.830069 32 13
1.105370 3.208409 -0.059233 3 14
1.174214 3.408234 0.965913 41 15
0.914327 2.653893 -0.752128 1 0
1.173764 3.406925 0.062898 33 1
0.907720 2.634717 -0.643360 8 2
1.172333 3.402774 0.188619 39 3
0.907446 2.633922 -0.541516 8 4
1.172071 3.402013 0.314807 26 5
0.907258 2.633377 -0.441145 8 6
1.167778 3.389553 0.440192 33 7
0.910427 2.642575 -0.343184 9 8
1.165924 3.384169 0.566918 35 9
0.910529 2.642870 -0.244559 5 10
1.163885 3.378251 0.694545 34 11
0.908201 2.636111 -0.146122 5 12
1.162897 3.375385 0.824221 34 13
1.102764 3.200846 -0.059094 5 14
1.162888 3.375357 0.956595 42 15
0.922560 2.618292 -0.743846 3 0
1.190874 3.379787 0.062549 31 1
0.927387 2.631991 -0.644260 9 2
1.186104 3.366251 0.187049 38 3
0.923203 2.620116 -0.539989 11 4
1.185861 3.365560 0.312192 30 5
0.925621 2.626979 -0.441145 10 6
1.187455 3.370084 0.438730 34 7
0.926875 2.630538 -0.342453 11 8
1.179018 3.346137 0.561913 35 9
0.924985 2.625174 -0.243513 7 10
1.179611 3.347823 0.689965 30 11
0.931892 2.644777 -0.146959 10 12
1.178662 3.345129 0.818822 32 13
1.127077 3.198727 -0.059199 5 14
1.174868 3.334359 0.947278 38 15
0.927696 2.632868 -0.747987 1 0
1.176919 3.340180 0.061816 28 1
0.926739 2.630153 -0.643810 7 2
1.180795 3.351181 0.186211 38 3
0.925160 2.625671 -0.541134 10 4
1.176591 3.339252 0.309752 33 5
0.924308 2.623252 -0.440519 9 6
1.176240 3.338255 0.434586 41 7
0.922257 2.617432 -0.340747 12 8
1.174422 3.333096 0.559723 39 9
0.922336 2.617658 -0.242816 12 10
1.169173 3.318197 0.683859 31 11
0.925254 2.625939 -0.145913 12 12
1.172834 3.328587 0.814773 37 13
1.131065 3.210043 -0.059408 17 14
1.165237 3.307029 0.939513 35 15
0.933615 2.591795 -0.738152 1 0
1.192754 3.311188 0.061432 28 1
0.941776 2.614453 -0.641560 6 2
1.194008 3.314670 0.184641 33 3
0.946795 2.628384 -0.543042 7 4
1.190422 3.304714 0.307311 33 5
0.943938 2.620453 -0.441145 7 6
1.186062 3.292610 0.429711 37 7
0.941180 2.612797 -0.340990 8 8
1.190968 3.306231 0.556594 34 9
0.939913 2.609280 -0.242642 7 10
1.185656 3.291483 0.680043 34 11
0.937472 2.602504 -0.144971 16 12
1.186797 3.294650 0.808474 34 13
1.145993 3.181374 -0.059024 36 14
1.184368 3.287908 0.936407 35 15
0.909390 2.524546 -0.718999 3 0
1.187332 3.296137 0.061153 30 1
0.926586 2.572284 -0.631213 2 2
1.184532 3.288363 0.183176 31 3
0.944799 2.622843 -0.541898 5 4
1.188396 3.299090 0.306788 38 5
0.942599 2.616736 -0.440519 5 6
1.180680 3.277669 0.427761 35 7
0.939835 2.609062 -0.340503 7 8
1.181596 3.280212 0.552214 34 9
0.943965 2.620527 -0.243687 6 10
1.180333 3.276706 0.676990 34 11
0.941534 2.613779 -0.145599 9 12
1.174909 3.261649 0.800376 33 13
1.133794 3.147510 -0.058396 33 14
1.177821 3.269733 0.931231 34 15
0.924991 2.512697 -0.717446 4 0
1.204788 3.272755 0.060874 34 1
0.927018 2.518205 -0.619515 3 2
1.201250 3.263145 0.182234 33 3
0.924427 2.511167 -0.520145 2 4
1.200386 3.260798 0.303999 37 5
0.932182 2.532234 -0.427379 2 6
1.198047 3.254444 0.425811 35 7
1.194231 3.244077 0.547521 31 9
0.953288 2.589567 -0.241421 3 10
1.196397 3.249962 0.673174 32 11
0.960448 2.609016 -0.145703 9 12
1.191592 3.236908 0.796327 31 13
1.152286 3.130135 -0.058221 26 14
1.193945 3.243301 0.926055 36 15
0.914980 2.485504 -0.709682 3 0
1.195117 3.246483 0.060385 38 1
0.920959 2.501746 -0.615466 3 2
1.190210 3.233156 0.180559 35 3
0.919001 2.496428 -0.517092 3 4
1.187997 3.227143 0.300862 35 5
0.915122 2.485890 -0.419557 3 6
1.192561 3.239541 0.423862 35 7
0.925109 2.513019 -0.328803 1 8
1.188771 3.229247 0.545018 31 9
0.928510 2.522257 -0.235146 3 10
1.184189 3.216799 0.666305 35 11
0.939749 2.552788 -0.142563 3 12
1.186879 3.224107 0.793177 33 13
1.141233 3.100110 -0.057663 25 14
1.180598 3.207043 0.915702 37 15
0.929589 2.471823 -0.707611 3 0
1.205786 3.206241 0.059792 39 1
0.928798 2.469719 -0.609167 3 2
1.207832 3.211682 0.179826 36 3
0.927423 2.466063 -0.512131 3 4
1.201380 3.194527 0.298596 33 5
0.921329 2.449857 -0.414551 3 6
1.204666 3.203266 0.420206 31 7
0.940534 2.500925 -0.328072 2 8
1.203638 3.200531 0.541576 36 9
0.933472 2.482146 -0.232009 3 10
1.192796 3.171702 0.658673 31 11
0.941378 2.503168 -0.140156 3 12
1.201813 3.195678 0.788229 31 13
1.154401 3.069606 -0.057244 30 14
1.193438 3.173408 0.908455 42 15
0.922109 2.451932 -0.701917 4 0
1.199450 3.189396 0.059478 38 1
0.919881 2.446007 -0.603319 4 2
1.197286 3.183640 0.178256 38 3
0.925350 2.460550 -0.510987 3 4
1.195770 3.179608 0.297201 30 5
0.919243 2.444310 -0.413613 3 6
1.194884 3.177253 0.416793 28 7
0.924463 2.458190 -0.322466 2 8
1.196684 3.182041 0.538447 40 9
0.924354 2.457902 -0.229743 3 10
1.185885 3.153326 0.654856 32 11
0.931535 2.476996 -0.138690 3 12
1.194953 3.177438 0.783729 37 13
1.149473 3.056504 -0.057000 52 14
1.187318 3.157134 0.903796 38 15
0.934356 2.432811 -0.698294 3 0
1.212367 3.156677 0.059024 41 1
0.929948 2.421334 -0.598820 4 2
1.208025 3.145373 0.176582 37 3
0.931243 2.424706 -0.504881 3 4
1.210795 3.152583 0.295458 32 5
0.932035 2.426769 -0.411736 3 6
1.211342 3.154009 0.414843 31 7
0.928079 2.416467 -0.317835 3 8
1.207538 3.144104 0.533442 42 9
0.931490 2.425350 -0.227302 4 10
1.203647 3.133974 0.652567 33 11
0.941644 2.451787 -0.137644 3 12
1.207325 3.143550 0.777431 37 13
1.170784 3.048405 -0.057000 26 14
1.203096 3.132537 0.899137 41 15
0.926737 2.412973 -0.692600 4 0
1.205914 3.139876 0.058710 37 1
0.924358 2.406780 -0.595220 4 2
1.200865 3.126728 0.175535 37 3
0.919277 2.393549 -0.498393 3 4
1.202937 3.132124 0.293541 35 5
0.924245 2.406484 -0.408294 3 6
1.203513 3.133625 0.412162 32 7
0.920250 2.396083 -0.315154 3 8
1.196206 3.114599 0.528436 42 9
0.924347 2.406751 -0.225559 4 10
1.199424 3.122977 0.650277 31 11
0.930903 2.423820 -0.136073 3 12
1.201736 3.128996 0.773832 43 13
1.158595 3.016670 -0.056406 22 14
1.194091 3.109093 0.892408 36 15
0.932567 2.379629 -0.684835 4 0
1.219232 3.111115 0.058326 33 1
0.936453 2.389546 -0.592521 4 2
1.216290 3.103605 0.174697 33 3
0.932682 2.379925 -0.496867 3 4
1.214051 3.097893 0.291100 37 5
0.931954 2.378067 -0.404540 4 6
1.216123 3.103181 0.409237 37 7
0.935089 2.386067 -0.314667 3 8
1.210171 3.087993 0.525307 39 9
0.934892 2.385563 -0.224165 4 10
1.212057 3.092806 0.645698 31 11
0.944465 2.409989 -0.135655 3 12
1.210918 3.089899 0.766183 40 13
1.171076 2.988234 -0.056022 22 14
1.204653 3.073913 0.884643 35 15
0.927632 2.367039 -0.681212 4 0
1.206099 3.077602 0.057698 31 1
0.930764 2.375031 -0.588922 4 2
1.211917 3.092448 0.174069 32 3
0.928384 2.368958 -0.494577 4 4
1.205327 3.075633 0.289008 37 5
0.923305 2.355997 -0.400785 4 6
1.209605 3.086547 0.407044 38 7
0.928571 2.369433 -0.312473 4 8
1.205847 3.076958 0.523430 36 9
0.926168 2.363303 -0.222073 4 10
1.203461 3.070871 0.641118 33 11
0.938634 2.395113 -0.134817 3 12
1.203808 3.071755 0.761684 38 13
1.165239 2.973339 -0.055743 21 14
1.199014 3.059523 0.880502 35 15
0.939420 2.349907 -0.678106 4 0
1.223308 3.060037 0.057523 34 1
0.937505 2.345117 -0.583073 4 2
1.222559 3.058163 0.172604 35 3
0.941573 2.355292 -0.493050 3 4
1.220318 3.052557 0.287614 37 5
0.937854 2.345989 -0.400159 4 6
1.214375 3.037690 0.401681 31 7
0.943940 2.361214 -0.312229 4 8
1.223830 3.061342 0.522178 39 9
0.939275 2.349544 -0.221376 4 10
1.216319 3.042555 0.636920 34 11
0.943053 2.358995 -0.133143 4 12
1.214561 3.038157 0.755386 37 13
1.182482 2.957912 -0.055603 20 14
1.216943 3.044116 0.878432 35 15
0.936552 2.342731 -0.676035 4 0
1.217370 3.045182 0.057244 37 1
0.931718 2.330641 -0.579474 4 2
1.209955 3.026635 0.170825 36 3
0.932827 2.333416 -0.488471 3 4
1.212922 3.034056 0.285871 37 5
0.935654 2.340487 -0.399221 4 6
1.207743 3.021101 0.399488 37 7
0.930677 2.328036 -0.307842 4 8
1.212097 3.031994 0.517172 35 9
0.936316 2.342144 -0.220678 4 10
1.209032 3.024326 0.633104 33 11
0.938605 2.347868 -0.132515 4 12
1.206604 3.018252 0.750437 31 13
1.173574 2.935630 -0.055185 20 14
1.211206 3.029765 0.874291 35 15
0.942669 2.311094 -0.668788 4 0
1.231047 3.018093 0.056895 38 1
0.944286 2.315058 -0.577224 4 2
1.225775 3.005170 0.170092 38 3
0.943163 2.312304 -0.485418 4 4
1.225044 3.003377 0.283779 37 5
0.946002 2.319265 -0.396718 4 6
1.223556 2.999729 0.397782 38 7
0.940909 2.306777 -0.305892 4 8
1.223536 2.999680 0.513105 41 9
0.943615 2.313412 -0.218587 4 10
1.225667 3.004904 0.630815 35 11
0.953465 2.337560 -0.132305 4 12
1.223966 3.000733 0.748187 37 13
1.181956 2.897740 -0.054626 21 14
1.223573 2.999771 0.868079 36 15
0.933914 2.289628 -0.662577 4 0
1.220473 2.992171 0.056406 37 1
0.940606 2.306036 -0.574975 4 2
1.218232 2.986676 0.169045 41 3
0.935007 2.292308 -0.481220 4 4
1.218272 2.986773 0.282210 38 5
0.942272 2.310120 -0.395153 4 6
1.220557 2.992377 0.396807 38 7
0.936410 2.295749 -0.304430 4 8
1.215330 2.979560 0.509663 39 9
0.932328 2.285739 -0.215972 4 10
1.215286 2.979455 0.625472 35 11
0.947430 2.322765 -0.131468 4 12
1.218078 2.986298 0.744588 35 13
1.172893 2.875521 -0.054207 21 14
1.210440 2.967573 0.858762 39 15
0.947649 2.277701 -0.661024 3 0
1.229042 2.954037 0.055848 38 1
0.949945 2.283220 -0.570926 4 2
1.235217 2.968879 0.168522 42 3
0.950987 2.285724 -0.481220 4 4
1.231440 2.959800 0.280467 36 5
0.946995 2.276128 -0.390460 4 6
1.231505 2.959957 0.393638 33 7
0.949365 2.281824 -0.303455 4 8
1.230789 2.958237 0.507473 41 9
0.945201 2.271817 -0.215275 4 10
1.223991 2.941895 0.619366 32 11
0.953649 2.292122 -0.130107 4 12
1.232159 2.961529 0.740539 34 13
1.186794 2.852492 -0.053928 23 14
1.224449 2.942997 0.854103 40 15
0.941713 2.263433 -0.656883 3 0
1.226738 2.948498 0.055743 39 1
0.939465 2.258030 -0.564627 4 2
1.224476 2.943062 0.167056 42 3
0.946462 2.274848 -0.478931 4 4
1.224552 2.943244 0.278898 33 5
0.942442 2.265185 -0.388583 4 6
1.219304 2.930632 0.389738 31 7
0.940977 2.261663 -0.300774 4 8
1.218648 2.929055 0.502468 41 9
0.941374 2.262619 -0.214403 4 10
1.219466 2.931020 0.617076 33 11
0.945210 2.271837 -0.128956 4 12
1.226170 2.947134 0.736940 39 13
1.182185 2.841415 -0.053719 23 14
1.217028 2.925161 0.848926 41 15
0.948437 2.235462 -0.650671 4 0
1.242606 2.928817 0.055534 52 1
0.949878 2.238859 -0.561478 4 2
1.234851 2.910540 0.165696 47 3
0.955419 2.251920 -0.475496 4 4
1.234953 2.910780 0.276632 42 5
0.957461 2.256732 -0.388270 4 6
1.230430 2.900120 0.386813 38 7
0.948990 2.236765 -0.298336 4 8
1.236753 2.915021 0.501529 49 9
0.954035 2.248656 -0.213706 4 10
1.235297 2.911591 0.614787 35 11
0.957146 2.255990 -0.128432 4 12
1.235298 2.911593 0.730191 46 13
1.194183 2.814684 -0.053369 23 14
1.231383 2.902366 0.844785 42 15
0.945419 2.228348 -0.648601 4 0
1.234796 2.910408 0.055185 37 1
0.947595 2.233477 -0.560128 4 2
1.227051 2.892154 0.164649 38 3
0.950052 2.239268 -0.472825 4 4
1.234953 2.910780 0.276632 37 5
0.952060 2.244003 -0.386080 4 6
1.228104 2.894637 0.386082 36 7
0.945113 2.227628 -0.297117 4 8
1.222865 2.882288 0.495897 39 9
0.947809 2.233983 -0.212311 4 10
1.229163 2.897133 0.611734 28 11
0.951686 2.243120 -0.127700 4 12
1.226165 2.890066 0.724792 41 13
1.183248 2.788912 -0.052881 23 14
1.222329 2.881025 0.838574 35 15
0.950983 2.198644 -0.641871 4 0
1.244764 2.877857 0.054731 37 1
0.961617 2.223230 -0.559228 4 2
1.242454 2.872518 0.164021 38 3
0.958647 2.216364 -0.469390 4 4
1.237843 2.861857 0.272797 39 5
0.959077 2.217358 -0.382639 4 6
1.245130 2.878705 0.385107 33 7
0.959066 2.217332 -0.296630 4 8
1.236684 2.859177 0.493394 33 9
0.957845 2.214510 -0.211091 4 10
1.243124 2.874065 0.608681 31 11
0.965737 2.232755 -0.127490 4 12
1.237028 2.859972 0.719393 33 13
1.194751 2.762229 -0.052532 23 14
1.235510 2.856463 0.833915 32 15
0.947148 2.189778 -0.639283 4 0
1.234444 2.853997 0.054277 33 1
0.953881 2.205344 -0.554729 4 2
1.237697 2.861519 0.163393 37 3
0.952412 2.201948 -0.466337 4 4
1.231516 2.847228 0.271403 40 5
0.952019 2.201040 -0.379823 4 6
1.230945 2.845910 0.380720 36 7
0.955125 2.208222 -0.295411 4 8
1.231979 2.848298 0.491517 32 9
0.951518 2.199881 -0.209697 4 10
1.232212 2.848838 0.603338 34 11
0.960186 2.219923 -0.126758 4 12
1.230839 2.845663 0.715794 33 13
1.188400 2.747546 -0.052253 20 14
1.229375 2.842279 0.829774 33 15
0.960455 2.177642 -0.637730 4 0
1.247572 2.828624 0.053963 38 1
0.959414 2.175283 -0.548881 4 2
1.250082 2.834315 0.162346 40 3
0.967352 2.193280 -0.465956 4 4
1.248642 2.831051 0.270706 40 5
0.962962 2.183327 -0.377946 4 6
1.241666 2.815233 0.377795 33 7
0.963693 2.184984 -0.293218 4 8
1.247546 2.828565 0.489640 31 9
0.964823 2.187547 -0.209174 4 10
1.246228 2.825577 0.600285 34 11
0.970405 2.200203 -0.126025 4 12
1.241733 2.815386 0.710395 35 13
1.203189 2.727994 -0.052043 20 14
1.241886 2.815733 0.824597 35 15
0.957336 2.170572 -0.635660 4 0
1.243537 2.819476 0.053788 41 1
0.958628 2.173500 -0.548431 4 2
1.239604 2.810559 0.160985 42 3
0.965768 2.189688 -0.465192 4 4
1.240602 2.812821 0.268963 37 5
0.962962 2.183327 -0.377946 4 6
1.231252 2.791621 0.374626 30 7
0.958085 2.172270 -0.291511 4 8
1.241169 2.814106 0.487137 36 9
0.961607 2.180255 -0.208477 4 10
1.238306 2.807615 0.596469 35 11
0.962346 2.181929 -0.124978 4 12
1.233869 2.797556 0.705896 32 13
1.195119 2.709698 -0.051694 19 14
1.238768 2.808663 0.822527 35 15
0.966963 2.153600 -0.632554 4 0
1.258933 2.803870 0.053649 41 1
0.971425 2.163539 -0.547531 4 2
1.252491 2.789522 0.160253 41 3
0.972227 2.165325 -0.461376 4 4
1.252701 2.789990 0.267568 38 5
0.975803 2.173288 -0.377320 4 6
1.248926 2.781583 0.374383 33 7
0.971658 2.164057 -0.291268 4 8
1.248477 2.780584 0.482757 36 9
0.972782 2.166559 -0.207779 4 10
1.247249 2.777848 0.591890 33 11
0.975159 2.171855 -0.124769 4 12
1.251598 2.787534 0.705446 36 13
1.201597 2.676172 -0.051205 20 14
1.247873 2.779237 0.816315 35 15
0.959841 2.137739 -0.627895 4 0
1.249104 2.781979 0.053230 41 1
0.969829 2.159983 -0.546631 4 2
1.245946 2.774945 0.159415 45 3
0.964990 2.149206 -0.457942 4 4
1.236379 2.753639 0.264082 37 5
0.969330 2.158872 -0.374817 4 6
1.245674 2.774339 0.373408 34 7
0.970845 2.162246 -0.291024 4 8
1.242814 2.767969 0.480567 37 9
0.964621 2.148384 -0.206036 4 10
1.239208 2.759938 0.588073 35 11
0.971887 2.164567 -0.124350 4 12
1.241221 2.764423 0.699598 36 13
1.152452 2.566717 -0.049111 9 14
1.232047 2.743990 0.805963 35 15
0.973073 2.125376 -0.626342 5 0
1.256144 2.743657 0.052671 44 1
0.979957 2.140413 -0.543482 5 2
1.260434 2.753026 0.158683 43 3
0.979901 2.140289 -0.457560 4 4
1.254043 2.739067 0.263559 37 5
0.977728 2.135544 -0.372001 4 6
1.255235 2.741670 0.370239 30 7
0.979232 2.138827 -0.288830 4 8
1.255669 2.742620 0.477751 40 9
0.974537 2.128574 -0.204816 4 10
1.249598 2.729360 0.583494 33 11
0.980245 2.141041 -0.123408 4 12
1.258207 2.748163 0.697798 36 13
1.122954 2.452745 -0.047087 11 14
1.245695 2.720833 0.801821 35 15
0.969856 2.118350 -0.624272 7 0
1.249485 2.729111 0.052392 44 1
0.978335 2.136869 -0.542582 7 2
1.249625 2.729418 0.157322 45 3
0.982353 2.145644 -0.458705 5 4
1.249067 2.728198 0.262513 34 5
0.977728 2.135544 -0.372001 5 6
1.242839 2.714596 0.366583 33 7
0.975926 2.131608 -0.287855 6 8
1.254847 2.740824 0.477438 42 9
0.972879 2.124951 -0.204467 4 10
1.241426 2.711509 0.579678 31 11
0.971931 2.122881 -0.122361 4 12
1.247661 2.725128 0.691949 41 13
1.117960 2.441836 -0.046877 11 14
1.239261 2.706781 0.797680 36 15
0.992786 2.129036 -0.629448 14 0
1.264281 2.711260 0.052218 41 1
0.991582 2.126455 -0.541682 13 2
1.261897 2.706146 0.156485 40 3
0.997308 2.138734 -0.458705 9 4
1.263872 2.710383 0.261642 38 5
0.989274 2.121505 -0.370750 10 6
1.260082 2.702255 0.366096 33 7
0.993301 2.130140 -0.288587 11 8
1.262263 2.706932 0.473058 46 9
0.987690 2.118107 -0.204467 7 10
1.255347 2.692100 0.577388 34 11
0.982507 2.106993 -0.121838 5 12
1.254302 2.689859 0.685201 40 13
1.129064 2.421285 -0.046633 12 14
1.251596 2.684056 0.793539 35 15
0.988704 2.120282 -0.626860 26 0
1.260901 2.704010 0.052078 43 1
0.989111 2.121156 -0.540332 25 2
1.250080 2.680804 0.155019 40 3
0.988181 2.119161 -0.454507 18 4
1.257136 2.695937 0.260247 34 5
0.988439 2.119714 -0.370437 18 6
1.255888 2.693259 0.364877 35 7
0.990784 2.124743 -0.287855 20 8
1.249741 2.680078 0.468365 34 9
0.983480 2.109079 -0.203596 11 10
1.253688 2.688541 0.576625 34 11
0.982507 2.106993 -0.121838 9 12
1.250184 2.681028 0.682951 45 13
1.117233 2.395913 -0.046144 11 14
1.245065 2.670049 0.789398 36 15
0.994464 2.096224 -0.621683 17 0
1.268521 2.673908 0.051659 37 1
1.001487 2.111028 -0.539433 20 2
1.263551 2.663432 0.154496 39 3
1.003056 2.114335 -0.454889 25 4
1.263033 2.662339 0.257807 37 5
0.999936 2.107758 -0.369498 23 6
1.266915 2.670523 0.362927 35 7
1.008257 2.125299 -0.288830 32 8
1.261561 2.659237 0.466175 38 9
0.996592 2.100710 -0.203422 17 10
1.263076 2.662430 0.572809 32 11
1.005020 2.118475 -0.122885 15 12
1.259585 2.655071 0.678452 41 13
1.131384 2.384837 -0.046074 11 14
1.252809 2.640789 0.783186 33 15
0.992808 2.092733 -0.620648 7 0
1.255665 2.646808 0.051136 36 1
0.999816 2.107507 -0.538533 7 2
1.260127 2.656214 0.154077 38 3
0.997165 2.101918 -0.452217 10 4
1.252785 2.640738 0.255715 35 5
0.992315 2.091696 -0.366682 15 6
1.258407 2.652588 0.360490 36 7
0.996345 2.100190 -0.285418 16 8
1.254788 2.644960 0.463672 38 9
0.994030 2.095309 -0.202899 17 10
1.252978 2.641145 0.568229 38 11
1.002452 2.113062 -0.122571 19 12
1.252068 2.639225 0.674403 34 13
1.123670 2.368577 -0.045760 11 14
1.247841 2.630316 0.780081 31 15
1.019893 2.109750 -0.627895 7 0
1.266330 2.619529 0.050787 37 1
1.017783 2.105385 -0.539883 7 2
1.270872 2.628924 0.153030 39 3
1.013401 2.096320 -0.452599 6 4
1.268640 2.624309 0.255018 38 5
1.012780 2.095036 -0.368560 8 6
1.261402 2.609335 0.355859 34 7
1.012577 2.094617 -0.285662 9 8
1.269844 2.626798 0.462107 36 9
1.016300 2.102317 -0.204293 10 10
1.265469 2.617748 0.565176 39 11
1.011829 2.093070 -0.121838 18 12
1.262051 2.610677 0.669454 37 13
1.138391 2.354875 -0.045655 11 14
1.262044 2.610663 0.776975 35 15
1.027460 2.125403 -0.632554 7 0
1.260237 2.606926 0.050542 35 1
1.021175 2.112403 -0.541682 7 2
1.258702 2.603750 0.151565 39 3
1.024509 2.119298 -0.457560 5 4
1.262570 2.611752 0.253798 41 5
1.023957 2.118156 -0.372627 6 6
1.255354 2.596825 0.354152 38 7
1.019489 2.108915 -0.287612 8 8
1.259527 2.605457 0.458353 36 9
1.018034 2.105904 -0.204642 9 10
1.262051 2.610678 0.563650 40 11
1.018784 2.107455 -0.122675 11 12
1.255265 2.596641 0.665855 39 13
1.137521 2.353075 -0.045621 10 14
1.260362 2.607184 0.775939 39 15
1.037155 2.107778 -0.629448 8 0
1.281055 2.603447 0.050647 36 1
1.041060 2.115713 -0.544382 7 2
1.273322 2.587731 0.151146 39 3
1.041880 2.117379 -0.458705 6 4
1.271097 2.583210 0.251880 39 5
1.043080 2.119818 -0.374191 6 6
1.269947 2.580873 0.353177 37 7
1.034187 2.101746 -0.287612 8 8
1.271581 2.584193 0.456163 33 9
1.031831 2.096958 -0.204467 8 10
1.276779 2.594758 0.562123 41 11
1.037880 2.109252 -0.123199 8 12
1.263898 2.568581 0.660906 36 13
1.137146 2.310986 -0.044957 10 14
1.266592 2.574055 0.768693 42 15
1.032891 2.099111 -0.626860 10 0
1.268695 2.578328 0.050158 40 1
1.046222 2.126204 -0.547081 8 2
1.270676 2.582355 0.150832 40 3
1.046214 2.126187 -0.460613 7 4
1.263180 2.567120 0.250311 41 5
1.042208 2.118046 -0.373878 8 6
1.262935 2.566624 0.351227 37 7
1.042952 2.119558 -0.290049 10 8
1.266348 2.573559 0.454286 38 9
1.031831 2.096958 -0.204467 8 10
1.264644 2.570096 0.556781 43 11
1.033471 2.100291 -0.122675 9 12
1.260457 2.561587 0.659107 36 13
1.132731 2.302014 -0.044783 7 14
1.258063 2.556721 0.763516 42 15
1.048519 2.095670 -0.627895 7 0
1.275924 2.550185 0.049774 43 1
1.060301 2.119219 -0.547081 6 2
1.279732 2.557795 0.149890 45 3
1.051507 2.101644 -0.456797 6 4
1.272154 2.542650 0.248742 38 5
1.057116 2.112854 -0.374191 8 6
1.275489 2.549315 0.350009 39 7
1.050768 2.100167 -0.288343 9 8
1.280737 2.559803 0.453347 36 9
1.046608 2.091851 -0.204642 12 10
1.272877 2.544095 0.552964 42 11
1.050059 2.098749 -0.122989 12 12
1.275674 2.549685 0.658207 38 13
1.150658 2.299816 -0.044888 5 14
1.269805 2.537955 0.760410 43 15
1.055434 2.109491 -0.632036 6 0
1.270556 2.539455 0.049565 43 1
1.056813 2.112248 -0.545281 6 2
1.269902 2.538147 0.148739 42 3
1.058535 2.115690 -0.459850 5 4
1.266805 2.531959 0.247697 39 5
1.058884 2.116387 -0.374817 6 6
1.263054 2.524461 0.346596 40 7
1.056098 2.110818 -0.289805 8 8
1.274550 2.547437 0.451157 38 9
1.051065 2.100760 -0.205513 8 10
1.262336 2.523026 0.548385 41 11
1.050953 2.100536 -0.123094 9 12
1.268699 2.535743 0.654608 34 13
1.174817 2.348102 -0.045830 10 14
1.266348 2.531044 0.758340 43 15
1.068382 2.098629 -0.631001 4 0
1.282810 2.519831 0.049355 45 1
1.069765 2.101345 -0.544382 4 2
1.277623 2.509641 0.147587 47 3
1.075061 2.111747 -0.460613 5 4
1.279027 2.512400 0.246651 38 5
1.078114 2.117745 -0.376381 5 6
1.276144 2.506737 0.345378 37 7
1.071709 2.105163 -0.290049 9 8
1.283341 2.520874 0.448028 43 9
1.070225 2.102248 -0.206385 8 10
1.276356 2.507153 0.546859 42 11
1.067404 2.096707 -0.123304 10 12
1.279298 2.512931 0.651008 38 13
1.222026 2.400433 -0.047017 11 14
1.273469 2.501482 0.752128 43 15
1.041212 2.045259 -0.614954 3 0
1.280996 2.516266 0.049286 41 1
1.046778 2.056192 -0.532684 3 2
1.274904 2.504301 0.147273 49 3
1.050121 2.062759 -0.449928 3 4
1.273604 2.501747 0.245605 38 5
1.061983 2.086058 -0.370750 4 6
1.273442 2.501429 0.344647 34 7
1.063603 2.089242 -0.287855 4 8
1.271690 2.497988 0.443961 40 9
1.071129 2.104024 -0.206559 7 10
1.271012 2.496656 0.544569 42 11
1.069216 2.100267 -0.123513 10 12
1.270457 2.495564 0.646509 38 13
1.221119 2.398651 -0.046982 14 14
1.266458 2.487710 0.747987 45 15
1.053155 2.032610 -0.613401 2 0
1.287929 2.485729 0.048867 40 1
1.054293 2.034807 -0.529085 2 2
1.284523 2.479154 0.146331 45 3
1.053114 2.032531 -0.444967 2 4
1.284140 2.478417 0.244210 36 5
1.064160 2.053850 -0.366370 2 6
1.286743 2.483440 0.343428 36 7
1.062088 2.049851 -0.283468 2 8
1.286807 2.483563 0.443022 41 9
1.068742 2.062694 -0.203247 3 10
1.279813 2.470065 0.540753 40 11
1.095244 2.113842 -0.124769 6 12
1.287385 2.484679 0.646059 39 13
1.215253 2.345463 -0.046109 3 14
1.270896 2.452854 0.740222 43 15
1.046045 2.018888 -0.609260 3 0
1.049811 2.026155 -0.526835 2 2
1.059436 2.044733 -0.447638 2 4
1.278641 2.467802 0.243165 9 5
1.046894 2.020525 -0.360425 1 6
1.276698 2.464052 0.340747 13 7
1.060262 2.046326 -0.282981 1 8
1.275902 2.462516 0.439268 33 9
1.061409 2.048541 -0.201853 1 10
